ply
format ascii 1.0
element vertex 791
property float x
property float y
property float z
end_header
-0.2590283751487732 -0.10917335748672485 -0.18051666021347046
0.24491047859191895 -0.10554973781108856 -0.2434995472431183
0.22772116959095 -0.14480017125606537 0.14737695455551147
-0.09407936036586761 -0.5103783011436462 0.13330136239528656
-0.21175627410411835 -0.19104400277137756 0.015242204070091248
-0.16452494263648987 -0.042612235993146896 -0.18538311123847961
-0.17705094814300537 0.38694244623184204 -0.1361255645751953
-0.01495860144495964 -0.21728190779685974 -0.31728029251098633
0.28252336382865906 0.5024644136428833 0.22952228784561157
0.07987441122531891 -0.47597166895866394 -0.08209459483623505
0.4734172821044922 -0.4562590718269348 -0.41799721121788025
-0.26367107033729553 0.16711756587028503 -0.36994296312332153
-0.18060122430324554 -0.14804275333881378 0.30983561277389526
-0.48439425230026245 -0.25102514028549194 0.26276347041130066
-0.00826026126742363 0.08774293959140778 -0.0950046107172966
0.14254924654960632 0.4079659581184387 0.24383528530597687
0.21467356383800507 -0.2834634482860565 -0.254716694355011
0.4159506857395172 -0.28413981199264526 -0.13462235033512115
-0.3463055193424225 -0.1662052869796753 0.15348434448242188
-0.012012004852294922 0.5071962475776672 -0.08012339472770691
-0.04211140424013138 0.16379544138908386 -0.34039339423179626
0.06898368895053864 0.37298575043678284 0.20429366827011108
-0.22963756322860718 -0.19570140540599823 0.17454084753990173
-0.19451189041137695 -0.23322230577468872 0.4901731610298157
-0.17242777347564697 -0.04742957651615143 0.331496000289917
-0.09938539564609528 -0.164494127035141 0.5089945793151855
0.03786733001470566 -0.32506462931632996 -0.27971258759498596
-0.29336559772491455 0.23977404832839966 -0.08286920189857483
0.05762401968240738 0.5266837477684021 0.06917931139469147
-0.08713072538375854 -0.045799270272254944 -0.409974068403244
0.18678788840770721 0.18322280049324036 0.005238614976406097
-0.17355071008205414 -0.3147922158241272 0.13185366988182068
0.2327728271484375 -0.30403169989585876 -0.10873336344957352
-0.33425837755203247 0.29859256744384766 -0.5158401727676392
0.29870402812957764 0.06703072041273117 0.25537216663360596
-0.017475835978984833 -0.09157080203294754 0.28538644313812256
-0.011435655876994133 -0.3689608573913574 -0.11054646968841553
0.2744522988796234 0.10490676015615463 0.19964812695980072
-0.22137896716594696 0.07095514237880707 0.06423642486333847
0.44776859879493713 -0.11324560642242432 -0.12262196093797684
-0.07121504843235016 0.058876581490039825 -0.2808060348033905
0.20719215273857117 -0.2624424993991852 -0.08300725370645523
0.014367610216140747 -0.3749326467514038 -0.1755242943763733
0.2979982793331146 -0.5466025471687317 -0.2759781777858734
0.02458159253001213 0.48136353492736816 -0.040041182190179825
0.03005078434944153 0.047606177628040314 0.4427301585674286
-0.1627129316329956 -0.3382256329059601 0.07981286942958832
0.20015263557434082 0.0729731097817421 0.27767640352249146
0.38230928778648376 0.32430335879325867 0.324270635843277
-0.05004563927650452 -0.22211821377277374 0.39296022057533264
0.32704800367355347 -0.3536633849143982 -0.20394454896450043
0.18060116469860077 0.008279049769043922 0.3206211030483246
0.22189545631408691 0.16443803906440735 -0.0231541246175766
-0.15548568964004517 -0.16770751774311066 0.5198529362678528
-0.018800199031829834 0.21576225757598877 0.16721205413341522
0.08869326114654541 0.07836287468671799 0.2513788342475891
0.22676821053028107 -0.008785098791122437 -0.3034074604511261
-0.22655639052391052 -0.16357539594173431 0.3478819727897644
0.268621563911438 -0.17518669366836548 0.09188077598810196
-0.3692544996738434 0.34489530324935913 -0.188283771276474
0.05682336539030075 -0.1310931146144867 0.3617953062057495
0.18672986328601837 0.32618436217308044 0.10970685631036758
0.472377747297287 -0.4625694155693054 -0.4166729748249054
-0.29684096574783325 -0.09990423917770386 0.27679285407066345
-0.10189954191446304 -0.2668991982936859 0.30215007066726685
0.06245255842804909 -0.04981686919927597 0.4529205560684204
0.1076337918639183 -0.30708587169647217 -0.34149283170700073
-0.11728010326623917 -0.017915185540914536 0.34827283024787903
0.20774908363819122 -0.5155031085014343 -0.20766249299049377
-0.15203121304512024 -0.45762279629707336 0.12048157304525375
-0.010285861790180206 -0.25229087471961975 0.07722677290439606
0.28132960200309753 0.31857162714004517 0.3851723074913025
0.04419020935893059 0.4644428789615631 -0.053598109632730484
0.17412976920604706 -0.13680171966552734 0.2164391279220581
0.1982945203781128 -0.03926481306552887 0.16892078518867493
-0.2909923493862152 -0.2188347429037094 0.49129796028137207
0.4036402106285095 -0.20623350143432617 -0.17235545814037323
-0.027316922321915627 0.07484966516494751 -0.526080310344696
-0.45332977175712585 0.06899191439151764 -0.028924230486154556
0.06004423648118973 0.033844366669654846 0.5032510757446289
0.37486958503723145 -0.06451018154621124 -0.23501041531562805
0.2724861204624176 -0.2612137794494629 -0.3999875783920288
0.23281195759773254 -0.007200185209512711 0.275393009185791
0.06700596958398819 -0.301510214805603 -0.30482515692710876
-0.2240835726261139 0.08148863911628723 -0.10818090289831161
-0.5397389531135559 -0.11359900236129761 0.08051614463329315
-0.0631694495677948 -0.2982790470123291 0.06188393756747246
-0.11922231316566467 0.4526742994785309 -0.20828813314437866
0.5126943588256836 -0.21682892739772797 -0.2809198200702667
0.026098351925611496 -0.5055453777313232 -0.09181393682956696
0.019401777535676956 -0.183827742934227 0.30680426955223083
0.2319267988204956 0.1676323562860489 0.3017881214618683
0.08629397302865982 -0.009903809055685997 -0.4705049395561218
0.0943756103515625 -0.46262380480766296 -0.06809022277593613
-0.38182371854782104 -0.30739718675613403 0.30150362849235535
0.2920462489128113 0.12729495763778687 -0.03247794508934021
0.06717236340045929 -0.38917669653892517 -0.24642634391784668
-0.3288339376449585 -0.36344724893569946 0.5425429940223694
0.037573039531707764 -0.031982794404029846 0.16793498396873474
0.2032240927219391 0.1577984094619751 0.49889713525772095
0.012575835920870304 -0.1451873779296875 0.3508664667606354
-0.19584758579730988 0.13455089926719666 -0.3305499255657196
0.30290520191192627 -0.3719801902770996 -0.4637342095375061
-0.05646641552448273 0.3601628243923187 -0.01869599148631096
0.504520833492279 0.01858670264482498 0.04329211264848709
0.0842168927192688 0.2819395363330841 -0.05924026668071747
0.015057094395160675 0.100478395819664 0.049952030181884766
0.005032040178775787 -0.33224570751190186 -0.24721522629261017
0.06585283577442169 0.2980722188949585 0.16455262899398804
-0.2919197976589203 0.094527468085289 -0.18075621128082275
0.38483792543411255 -0.28304505348205566 -0.2960648536682129
0.20333266258239746 0.07208287715911865 -0.1690320074558258
0.27488973736763 0.2052278220653534 -0.08244495838880539
0.35528409481048584 0.5492371320724487 0.3601611852645874
-0.10390665382146835 -0.38187018036842346 0.21515607833862305
0.21436969935894012 0.29592445492744446 0.06548158079385757
-0.47205203771591187 -0.1691581755876541 0.1284816414117813
-0.14862190186977386 -0.25975266098976135 -0.04934198409318924
-0.21335206925868988 -0.2872598469257355 0.0860816016793251
-0.1288401484489441 0.16788117587566376 -0.3165413439273834
0.32528239488601685 0.4150242507457733 0.3051406145095825
-0.13899335265159607 -0.1898382306098938 0.3335847854614258
-0.02199116349220276 -0.012506246566772461 0.16848547756671906
-0.03285878151655197 -0.5335156321525574 0.059499211609363556
-0.2145773470401764 0.3961338996887207 -0.22911150753498077
-0.010934844613075256 -0.051675945520401 0.1968505084514618
-0.11467102915048599 -0.37716782093048096 0.06073859706521034
-0.10891574621200562 0.09376368671655655 -0.29451984167099
0.36151736974716187 -0.29007354378700256 -0.5036868453025818
0.07624078541994095 -0.22035712003707886 -0.3050897717475891
0.4977630078792572 -0.05832873284816742 -0.05161420255899429
0.2727541923522949 -0.04687196761369705 0.2566317319869995
0.01661021262407303 0.2932974696159363 0.20401087403297424
-0.14750683307647705 -0.06802823394536972 -0.1942175030708313
0.4726575016975403 -0.33942076563835144 -0.3792959451675415
-0.08560966700315475 -0.238974928855896 0.39285242557525635
0.12932433187961578 0.2738209068775177 -0.05158352106809616
0.06362759321928024 0.17757251858711243 0.37148594856262207
-0.026678571477532387 -0.2575274705886841 0.33356738090515137
0.0239579975605011 0.29589521884918213 0.21829400956630707
0.13706636428833008 -0.16982987523078918 -0.2903301417827606
0.033139850944280624 0.019523173570632935 -0.241592139005661
0.14766210317611694 0.1702902913093567 0.12555111944675446
-0.0752648115158081 -0.3920031487941742 0.20168837904930115
-0.08206656575202942 -0.08900125324726105 -0.13934177160263062
-0.2303476631641388 -0.2706102132797241 0.3858463764190674
0.32417672872543335 -0.07207924872636795 -0.09460991621017456
-0.04540261626243591 0.0015470385551452637 0.4419989287853241
-0.29151391983032227 -0.42411738634109497 0.1788448840379715
0.12221275269985199 0.346774697303772 0.3388718068599701
-0.1378328949213028 -0.03980819508433342 0.31293004751205444
-0.31997230648994446 0.08051083981990814 -0.21056772768497467
-0.2463323026895523 -0.07686952501535416 -0.08363210409879684
0.047176167368888855 0.4167121648788452 0.04340122640132904
0.2896749675273895 -0.18253779411315918 -0.1804383397102356
-0.06966459006071091 -0.043334849178791046 0.49924802780151367
-0.11095844954252243 -0.17575760185718536 0.21969160437583923
-0.22579942643642426 -0.16528457403182983 0.4522731900215149
-0.06739954650402069 0.013053879141807556 -0.16665512323379517
-0.1702488213777542 0.2763167917728424 -0.16854658722877502
0.060519978404045105 0.4067762792110443 0.187930166721344
0.3127102255821228 0.2883657217025757 0.29411429166793823
0.30581173300743103 0.44951584935188293 0.2387283742427826
0.002410978078842163 0.3330942392349243 -0.11638528108596802
-0.047786589711904526 -0.3477821350097656 -0.1668386608362198
-0.4900498390197754 -0.08356325328350067 0.015339143574237823
-0.15865442156791687 -0.3636751174926758 -0.027262717485427856
0.41170597076416016 0.14862307906150818 0.17551226913928986
0.17102228105068207 0.3336828947067261 0.11121334880590439
0.5575153827667236 0.2358596920967102 0.22097206115722656
-0.24051713943481445 0.4829293489456177 -0.2247488796710968
-0.275433748960495 -0.18955454230308533 -0.04952322319149971
-0.22688904404640198 -0.18359100818634033 0.4697916805744171
0.08209051936864853 0.1732768714427948 0.14573533833026886
0.15633931756019592 0.25918132066726685 -0.0633024200797081
-0.06086120009422302 -0.31841641664505005 0.19857527315616608
0.1396452635526657 0.18002966046333313 0.31085652112960815
-0.4736866056919098 -0.28356897830963135 0.18323032557964325
0.00995643064379692 -0.12129640579223633 0.44035404920578003
0.29651087522506714 -0.36402809619903564 -0.509546160697937
-0.15603548288345337 0.13842737674713135 -0.06470396369695663
0.35032498836517334 0.3852146863937378 0.1762709617614746
-0.3237837255001068 0.07949934899806976 -0.21238838136196136
-0.25025177001953125 -0.12932181358337402 0.09296652674674988
-0.09776550531387329 -0.1087077334523201 -0.1901024878025055
0.2511191666126251 -0.3154448866844177 -0.19065360724925995
-0.11172247678041458 -0.16053304076194763 0.0727211982011795
0.2680544853210449 -0.41593241691589355 -0.14272411167621613
-0.15179812908172607 0.3561045825481415 -0.00027839653193950653
-0.3037832975387573 0.11511427909135818 -0.27578258514404297
0.36182549595832825 0.2799082100391388 0.47068876028060913
0.35793936252593994 -0.25576484203338623 -0.29825568199157715
-0.0387256033718586 -0.050312936305999756 -0.1498211771249771
-0.0016483217477798462 0.2601943612098694 0.10097014904022217
-0.3606320023536682 0.00677558034658432 -0.1896996945142746
-0.42540988326072693 -0.1968584507703781 0.050406862050294876
-0.262183278799057 0.38105833530426025 -0.09249584376811981
-0.19098658859729767 -0.2621855139732361 0.21406936645507812
-0.13357354700565338 0.14952903985977173 -0.27025237679481506
-0.23991338908672333 -0.5125527381896973 0.2483694851398468
0.24518464505672455 0.027203142642974854 0.09937756508588791
0.3088628947734833 -0.1375959813594818 0.10511630773544312
-0.11703316122293472 -0.3533959984779358 0.19621314108371735
0.0037683844566345215 -0.5009763240814209 -0.013796724379062653
0.14213654398918152 -0.12404252588748932 0.25570186972618103
0.26554521918296814 -0.2267686277627945 -0.15961375832557678
-0.29068833589553833 -0.14314377307891846 0.21446636319160461
0.3718200922012329 0.4277065396308899 0.5111574530601501
-0.09085000306367874 -0.3074544668197632 0.27473756670951843
-0.07144703716039658 0.1872977316379547 -0.3611683249473572
0.1029219850897789 0.05432962626218796 0.24787388741970062
-0.13462941348552704 0.40335121750831604 -0.2890698313713074
-0.41161051392555237 0.0021445946767926216 -0.059564776718616486
-0.40035280585289 -0.2924877405166626 0.41977909207344055
0.25602149963378906 0.017882417887449265 0.1706189662218094
0.10444042086601257 -0.10519354045391083 -0.37416958808898926
-0.167843297123909 0.09473032504320145 -0.2850847840309143
-0.06948469579219818 -0.052744656801223755 0.4583871364593506
-0.03896509110927582 0.006171390414237976 0.07697352021932602
-0.20224876701831818 0.23784378170967102 -0.4218156039714813
-0.15169481933116913 -0.17358894646167755 0.09801827371120453
0.14404968917369843 0.09875176101922989 0.28470733761787415
0.19658076763153076 0.010122554376721382 0.3707832992076874
-0.01733025163412094 0.10885550081729889 0.23270806670188904
0.36113685369491577 0.4896184504032135 0.3250925540924072
-0.31948643922805786 -0.15794014930725098 0.004872515797615051
-0.17382293939590454 -0.2556919455528259 0.3664335608482361
-0.30676358938217163 -0.039725884795188904 0.2750544548034668
0.058420196175575256 0.09025426208972931 0.38920336961746216
0.013997882604598999 -0.45946407318115234 -0.028673410415649414
0.07305489480495453 -0.24697893857955933 -0.14295515418052673
0.22565391659736633 -0.007957328110933304 0.22607290744781494
0.19524246454238892 -0.34563177824020386 -0.3941550850868225
-0.1172545775771141 -0.38262996077537537 -0.009126231074333191
-0.29227134585380554 0.4586743116378784 -0.21165981888771057
-0.3841608464717865 -0.19467508792877197 0.2361988127231598
-0.5436012744903564 -0.28348854184150696 0.3160253167152405
-0.2692965269088745 -0.4500032663345337 0.19541674852371216
0.0636017918586731 -0.20805078744888306 -0.044388461858034134
-0.11740744113922119 0.07115931808948517 0.12821367383003235
-0.0023007765412330627 -0.06372056901454926 -0.19056102633476257
-0.19076314568519592 0.3120228946208954 0.07292712479829788
0.027641436085104942 -0.28963810205459595 -0.13719040155410767
-0.12008552253246307 0.23653817176818848 0.15737006068229675
0.28345590829849243 0.16667389869689941 -0.007114740088582039
0.5041238069534302 0.5184565782546997 0.4472775459289551
0.047077905386686325 -0.3560856282711029 -0.015827834606170654
0.28344470262527466 -0.25031813979148865 -0.49999213218688965
-0.16865774989128113 0.2827296853065491 -0.39232388138771057
-0.08699830621480942 -0.3246985077857971 0.2670557200908661
0.2051807940006256 -0.3072523772716522 -0.09167799353599548
-0.09013161063194275 -0.1969844549894333 0.2963968515396118
-0.19199012219905853 0.17882861196994781 -0.3374181389808655
0.467138409614563 -0.07670949399471283 -0.17945551872253418
-0.30551543831825256 0.1900440752506256 -0.2178431749343872
0.29941219091415405 -0.436250239610672 -0.3831927478313446
0.02238321304321289 0.2080213725566864 0.1184510812163353
0.45446109771728516 0.26423147320747375 0.22577185928821564
0.1557369828224182 0.3472349941730499 0.20847898721694946
-0.39868831634521484 -0.3391551673412323 0.30711475014686584
0.3976045846939087 0.19688761234283447 0.2056942731142044
0.18705818057060242 0.24829596281051636 0.0033540986478328705
-0.3055597245693207 -0.4439966678619385 0.21119238436222076
-0.4478781223297119 0.35987845063209534 -0.47589343786239624
-0.3591669201850891 -0.1562959849834442 0.05338241159915924
0.11961118131875992 -0.09554346650838852 0.3582586944103241
-0.04762497544288635 0.22826004028320312 -0.140345960855484
-0.23282359540462494 0.12464916706085205 -0.4523577392101288
0.3188469707965851 -0.34689342975616455 -0.39407584071159363
0.4389766454696655 -0.14506535232067108 -0.02930404618382454
-0.0920158177614212 -0.23660573363304138 0.16942791640758514
-0.13234873116016388 0.26669323444366455 -0.17573098838329315
-0.13669633865356445 0.2665930688381195 0.014623351395130157
-0.18083859980106354 -0.23488196730613708 0.35368773341178894
-0.16000811755657196 -0.47591450810432434 0.16337744891643524
0.3777424693107605 -0.36625900864601135 -0.26481103897094727
-0.17624129354953766 0.3910748362541199 -0.11606728285551071
-0.4201967716217041 0.18305785953998566 -0.22976842522621155
0.4176376163959503 -0.1479906439781189 0.004591492936015129
0.41945844888687134 0.452564537525177 0.43584370613098145
0.27386948466300964 -0.17076073586940765 -0.01826673001050949
-0.19905206561088562 -0.5007782578468323 0.1953025609254837
0.3905617594718933 0.08662693202495575 0.24687278270721436
-0.22668564319610596 0.4880508780479431 -0.2058350145816803
0.16872091591358185 -0.4420965313911438 -0.11264777183532715
-0.036115601658821106 0.2939563989639282 -0.3160102665424347
0.4143896996974945 -0.09185051918029785 -0.1683388203382492
-0.44432276487350464 -0.11965595185756683 0.20741933584213257
-0.1387554407119751 -0.13953842222690582 0.009498842060565948
-0.3380666673183441 0.3067570924758911 -0.4480646252632141
0.45529183745384216 0.14569218456745148 0.038819052278995514
-0.0389372743666172 -0.02592707797884941 -0.49964573979377747
-0.1001385748386383 0.23435348272323608 -0.4360767602920532
-0.11762242019176483 0.2200413942337036 -0.26465553045272827
-0.12813015282154083 0.43739697337150574 -0.2430155873298645
-0.46633967757225037 -0.10790000855922699 0.042371079325675964
0.07783576846122742 -0.145437091588974 0.3320976495742798
0.2971407175064087 -0.21202298998832703 -0.45295870304107666
0.3298182785511017 0.5118787288665771 0.3751004934310913
-0.4480012059211731 -0.27928626537323 0.1751410812139511
0.04937387630343437 -0.5260196924209595 -0.09244593977928162
0.34786537289619446 -0.10258309543132782 0.002513602375984192
0.23918797075748444 -0.2354593276977539 -0.3534688353538513
-0.018633972853422165 0.22648829221725464 0.3072643280029297
0.27359244227409363 -0.10055018216371536 -0.24974268674850464
-0.5421052575111389 -0.46562960743904114 0.45742058753967285
-0.2849201261997223 0.0923757329583168 -0.1560269445180893
0.44450438022613525 0.5204945802688599 0.48433393239974976
-0.23738062381744385 0.12555760145187378 -0.21982833743095398
0.04321317374706268 0.019821882247924805 -0.30090293288230896
0.023630835115909576 -0.47928091883659363 -0.09979210793972015
0.3554827868938446 0.12725844979286194 0.08306926488876343
0.27842947840690613 -0.12616068124771118 0.14603421092033386
-0.12727653980255127 -0.10404649376869202 0.05165215581655502
-0.14979241788387299 -0.24953323602676392 0.4533821940422058
-0.043108388781547546 0.19208703935146332 0.32513532042503357
-0.3295794129371643 0.5570096373558044 -0.33380287885665894
-0.003056764602661133 0.09562263637781143 -0.38418838381767273
-0.15794292092323303 0.2838631272315979 -0.4140806198120117
0.23117686808109283 -0.25751015543937683 -0.46468400955200195
-0.20537181198596954 -0.17143774032592773 -0.03608027473092079
-0.310139536857605 -0.3453906774520874 0.14896182715892792
0.3500764071941376 0.1646239459514618 0.16491973400115967
-0.544445276260376 -0.27047088742256165 0.24814674258232117
0.008589029312133789 -0.36252105236053467 0.12953713536262512
-0.20127704739570618 -0.2787224352359772 0.31451112031936646
0.36820754408836365 0.4113878011703491 0.2534292936325073
0.027176320552825928 0.07734794169664383 -0.42322999238967896
-0.11670246720314026 0.2938779294490814 -0.016315896064043045
-0.4439246654510498 0.05974089726805687 -0.13454216718673706
-0.277403861284256 0.1401837170124054 -0.4326905608177185
-0.5376425981521606 0.45862600207328796 -0.4669828712940216
-0.06145302206277847 -0.09452071040868759 0.3015681207180023
0.1217758059501648 0.42747625708580017 0.18851178884506226
-0.28000184893608093 0.17374363541603088 0.019060291349887848
0.11484584212303162 0.09946423768997192 -0.3232516050338745
0.20142190158367157 -0.04061342775821686 -0.13063444197177887
-0.31664642691612244 0.031046167016029358 -0.2713763117790222
0.0567316859960556 0.03514251112937927 0.2406473159790039
0.0782930925488472 -0.31105202436447144 0.1283663660287857
0.4833226203918457 0.10911104083061218 0.042225420475006104
-0.2920427918434143 0.06121417135000229 -0.197722926735878
-0.3416779637336731 -0.1086585521697998 0.19364488124847412
-0.20807908475399017 -0.4704650640487671 0.14036938548088074
0.16769447922706604 0.15383954346179962 0.26021480560302734
-0.33774420619010925 0.43321698904037476 -0.25023195147514343
-0.02836475521326065 -0.23047760128974915 -0.2824820578098297
-0.14595572650432587 -0.18026642501354218 0.24035722017288208
0.17635586857795715 0.2763030529022217 0.003143101930618286
0.419874370098114 -0.020295411348342896 0.06710729002952576
-0.015205795876681805 0.5261488556861877 -0.03612617403268814
0.3351644277572632 0.4261416792869568 0.36073440313339233
-0.40982142090797424 0.4118422567844391 -0.3035961091518402
-0.11618629097938538 0.08427873253822327 -0.21761834621429443
-0.23704390227794647 0.10737296938896179 -0.2630162239074707
0.04438397288322449 -0.2810943126678467 -0.215817391872406
0.15605399012565613 0.5127125382423401 0.13591712713241577
-0.30975818634033203 -0.4271906912326813 0.19604739546775818
0.5416933298110962 -0.13335002958774567 -0.1424415111541748
-0.45216959714889526 -0.4498908221721649 0.5654508471488953
0.4771465063095093 0.37144723534584045 0.31318479776382446
0.07162737101316452 -0.3953148126602173 -0.2190125584602356
-0.5120952129364014 -0.37202778458595276 0.3881376087665558
0.13816343247890472 0.22267548739910126 0.14598704874515533
0.3700505793094635 -0.24230748414993286 -0.3197541832923889
-0.2271408885717392 0.3067973256111145 -0.05351440981030464
-0.11797898262739182 -0.046629659831523895 -0.11797463148832321
-0.30319225788116455 0.47958630323410034 -0.39022204279899597
-0.040270641446113586 -0.2268211841583252 0.23257765173912048
0.550171434879303 0.29900214076042175 0.3247417211532593
0.17980656027793884 -0.05370822548866272 0.16666212677955627
-0.10909518599510193 -0.04441145062446594 0.4291312098503113
0.1175018772482872 -0.012148872017860413 -0.14519643783569336
0.3895478844642639 0.3399316370487213 0.4756212830543518
0.06176956370472908 -0.43163418769836426 -0.2067124843597412
0.03515460342168808 -0.0811561793088913 0.10252468287944794
-0.08683192729949951 -0.43183237314224243 0.0678270012140274
0.11296968162059784 0.08884675055742264 0.407110333442688
0.5521854162216187 0.2545527517795563 0.24396008253097534
-0.07307862490415573 0.29730507731437683 -0.33582812547683716
-0.45282551646232605 -0.42167434096336365 0.4412465989589691
-0.22591690719127655 -0.2002052217721939 0.06246629357337952
0.3367963433265686 0.46499311923980713 0.23906108736991882
-0.08140380680561066 0.00044682249426841736 -0.34312742948532104
-0.0289820097386837 0.14094215631484985 -0.4514080286026001
-0.39693206548690796 0.012465499341487885 0.0766172707080841
-0.36926722526550293 -0.0920293778181076 0.002949327230453491
0.02355262078344822 -0.06862349808216095 -0.5201894640922546
0.18466465175151825 -0.30501747131347656 0.05408307909965515
-0.22853678464889526 -0.025677675381302834 0.34574779868125916
-0.21384257078170776 0.5041880011558533 -0.2779846787452698
-0.035625532269477844 -0.36941415071487427 0.117703877389431
0.17617134749889374 0.36483508348464966 0.23866109549999237
-0.4987316131591797 0.07637569308280945 -0.11196379363536835
-0.0013068914413452148 0.2422391176223755 0.2663375735282898
0.5027589797973633 0.10832887887954712 0.03857213258743286
0.2928822338581085 -0.22082649171352386 -0.5026794075965881
0.2648624777793884 0.4826538562774658 0.34915921092033386
-0.42571377754211426 -0.24404069781303406 0.3804164230823517
0.4710404872894287 -0.1551179587841034 -0.18374371528625488
0.20470312237739563 -0.05733400955796242 0.29864302277565
-0.27441713213920593 -0.19984124600887299 0.4951932430267334
-0.0768137127161026 -0.059591613709926605 0.5342888236045837
-0.19794347882270813 0.3390130400657654 -0.08860497921705246
0.008449584245681763 0.034392476081848145 -0.2169124335050583
-0.33423227071762085 -0.15223464369773865 0.1464235484600067
-0.43405404686927795 -0.3409700095653534 0.3497297167778015
0.13287431001663208 -0.30018144845962524 -0.2995260953903198
0.39666059613227844 0.18195371329784393 0.15172138810157776
-0.11529602855443954 0.15382681787014008 -0.23411604762077332
0.2877216637134552 -0.1472313404083252 0.035852428525686264
0.32896173000335693 0.18914873898029327 -0.028841540217399597
0.4588056802749634 0.1297973394393921 0.15826702117919922
-0.07667754590511322 -0.2975020706653595 0.13808080554008484
0.27341774106025696 -0.1556873619556427 -0.31764569878578186
0.5080779194831848 0.07250263541936874 0.12141143530607224
0.4518328309059143 0.12366631627082825 0.08045653253793716
0.023222200572490692 0.3744513690471649 0.16359397768974304
0.3771282434463501 0.13700208067893982 0.10370691120624542
-0.10988388955593109 -0.2246498465538025 0.09625998139381409
0.3340755105018616 -0.060985855758190155 -0.137632817029953
0.19196495413780212 0.19309306144714355 0.3217916786670685
-0.35580113530158997 0.20558829605579376 -0.2873269021511078
-0.17863231897354126 0.19335946440696716 -0.4961807429790497
0.5219276547431946 0.09923011064529419 0.06742225587368011
0.3729337155818939 -0.47162485122680664 -0.3244361877441406
-0.06843572854995728 -0.273438036441803 -0.23438672721385956
0.20567446947097778 0.3370341658592224 0.11466944217681885
0.24879278242588043 0.2161991447210312 0.5314131379127502
0.22673580050468445 0.19819433987140656 0.21024850010871887
0.2582949995994568 0.09272633492946625 0.2852846682071686
0.20046217739582062 0.136721670627594 0.46601346135139465
-0.022965125739574432 0.12870831787586212 -0.46681761741638184
0.10563039034605026 -0.27555137872695923 -0.2573542594909668
-0.550525963306427 0.1583312749862671 -0.14327073097229004
-0.11976620554924011 0.4211920499801636 0.035916946828365326
-0.18667864799499512 -0.028628915548324585 -0.3320869505405426
-0.13559558987617493 -0.47818776965141296 0.07781403511762619
0.13774749636650085 -0.44556885957717896 -0.15458057820796967
-0.08691627532243729 -0.24453122913837433 0.16371899843215942
-0.22242923080921173 -0.11168299615383148 -0.1854504644870758
0.32242366671562195 0.20527632534503937 0.2148713767528534
-0.07779423892498016 0.34182047843933105 -0.2746564745903015
0.05788172781467438 0.2639647424221039 -0.24998199939727783
0.3138076364994049 0.16257783770561218 0.29285621643066406
-0.2359306663274765 -0.3388044536113739 0.16504421830177307
-0.44133293628692627 -0.10798041522502899 0.20731477439403534
-0.3406981825828552 0.13561740517616272 -0.08373341709375381
0.23571765422821045 0.1569884717464447 0.11570391058921814
-0.2794381380081177 -0.005091667175292969 -0.11580100655555725
-0.07389602810144424 0.2114979326725006 0.15985876321792603
-0.24916762113571167 0.025508444756269455 0.24401618540287018
0.07126133143901825 0.5568280816078186 0.08049371838569641
0.047456398606300354 0.4516674280166626 0.16253292560577393
-0.369714617729187 -0.1931929737329483 0.02934519201517105
-0.2680812478065491 -0.3610266447067261 0.2985265254974365
0.11760718375444412 -0.35442864894866943 -0.24998247623443604
0.1403968334197998 -0.41241025924682617 -0.2292625606060028
0.29186683893203735 -0.2838123142719269 -0.11471438407897949
0.11560925096273422 -0.48570385575294495 -0.0319223552942276
0.002013515681028366 -0.3825676441192627 0.15972714126110077
0.1262303590774536 -0.1297014206647873 -0.07936448603868484
0.3326192796230316 0.10072127729654312 -0.05261615291237831
0.3223762512207031 0.02493906021118164 -0.02484510838985443
0.12470486760139465 -0.039952218532562256 -0.4326644241809845
-0.13269083201885223 -0.013531513512134552 0.22577545046806335
0.3379038870334625 0.04698815196752548 -0.06610369682312012
-0.2992577850818634 0.2503179907798767 0.0025815339758992195
0.05023732781410217 0.2286025881767273 0.3809303939342499
-0.18152236938476562 0.3760756254196167 -0.38207194209098816
0.2751694619655609 -0.30610403418540955 -0.5437583327293396
-0.24625590443611145 -0.08750908076763153 0.40911176800727844
0.09264184534549713 -0.45622172951698303 -0.20917196571826935
0.2737422287464142 -0.20185372233390808 -0.3734850585460663
0.24616649746894836 0.138849675655365 0.4604882597923279
0.34782639145851135 0.02590912953019142 0.02292284369468689
-0.1323145031929016 0.2768997848033905 0.04792425036430359
-0.31311285495758057 0.370710164308548 -0.3442104160785675
-0.16467420756816864 -0.4845682382583618 0.20959123969078064
-0.18624772131443024 0.08896300941705704 -0.1828392744064331
-0.28562188148498535 0.49971339106559753 -0.22532401978969574
-0.20148959755897522 0.0041765496134757996 0.18704546988010406
-0.2797187566757202 0.5131248831748962 -0.22746609151363373
-0.42853501439094543 0.40279313921928406 -0.30898889899253845
-0.0028030311223119497 0.2482568472623825 -0.3266827166080475
0.45276764035224915 -0.1958833932876587 -0.11478352546691895
-0.39388322830200195 -0.28218504786491394 0.3008976876735687
-0.0022230520844459534 -0.1446513831615448 -0.12834998965263367
0.2789812684059143 0.347693532705307 0.0709608644247055
-0.06940104067325592 0.2798052728176117 -0.21686944365501404
-0.353687584400177 -0.13698303699493408 0.025855645537376404
0.15140114724636078 -0.021058468148112297 -0.4427174925804138
-0.412273645401001 -0.39680397510528564 0.5512527823448181
0.2807735204696655 0.2244988977909088 0.1257302165031433
0.3743046820163727 0.2211565524339676 0.23232921957969666
-0.3413856625556946 0.2994694709777832 -0.4714602530002594
0.24067723751068115 -0.17878170311450958 -0.08892896771430969
0.037612877786159515 0.3817947208881378 0.0663992241024971
0.0779152363538742 0.03278462216258049 0.13837535679340363
-0.2339673638343811 0.21463321149349213 -0.021015454083681107
-0.12230846285820007 -0.19011980295181274 0.39282453060150146
-0.41225793957710266 -0.31771472096443176 0.4559743106365204
0.03317579999566078 -0.5388578772544861 -7.484108209609985e-05
0.34751027822494507 -0.023904860019683838 -0.06459499895572662
-0.2409655749797821 -0.1999306082725525 0.36290958523750305
0.20079468190670013 -0.4678163230419159 -0.23800456523895264
-0.20912297070026398 0.2946913540363312 -0.0845034047961235
0.09135456383228302 0.39749929308891296 0.004335641860961914
-0.2004593014717102 -0.0007080361247062683 -0.2674458622932434
-0.049822937697172165 -0.22742311656475067 0.3540011942386627
-0.14488783478736877 -0.5115684270858765 0.14672689139842987
0.3560017943382263 0.2998959422111511 0.07880209386348724
-0.1285560429096222 -0.4482608139514923 0.24908658862113953
-0.2187284678220749 0.24659010767936707 -0.48215869069099426
-0.028700143098831177 0.10681174695491791 0.021577656269073486
0.2146669626235962 -0.098532535135746 -0.17364728450775146
0.0678028017282486 0.33968105912208557 -0.16967137157917023
-0.4056719243526459 -0.05353645980358124 0.05822635069489479
-0.35550829768180847 0.22533756494522095 -0.007400035858154297
0.15966007113456726 -0.12156203389167786 -0.018159449100494385
-0.3920991122722626 -0.09278404712677002 -0.04924769699573517
-0.38946622610092163 0.5174531936645508 -0.4446941614151001
-0.18724818527698517 -0.24217230081558228 0.4119684100151062
0.19405107200145721 0.19629132747650146 0.5456821918487549
0.2005912959575653 -0.049752283841371536 0.23386120796203613
0.22536203265190125 0.001002378761768341 0.32017838954925537
-0.21514813601970673 -0.06300587207078934 -0.14215514063835144
0.12371458113193512 -0.19242985546588898 -0.49177271127700806
-0.14407256245613098 0.2892659604549408 -0.15765680372714996
-0.015851646661758423 0.05262009799480438 -0.4818287193775177
0.03253631293773651 0.08911887556314468 0.3908233046531677
0.23798128962516785 -0.489431768655777 -0.19371208548545837
0.3675301671028137 0.3686921000480652 0.32616883516311646
0.15870818495750427 -0.014949684962630272 -0.3979439437389374
-0.22977323830127716 0.42394188046455383 -0.16658644378185272
-0.5631925463676453 -0.56043541431427 0.5575310587882996
0.036951944231987 -0.4937930107116699 -0.10564202070236206
0.3013172149658203 0.10674084722995758 0.2867986261844635
0.10000810027122498 -0.04909198358654976 0.42117002606391907
0.3909425735473633 0.03769782558083534 0.2196284979581833
0.2633289396762848 -0.28888681530952454 -0.5487973093986511
0.11265524476766586 -0.12375213205814362 0.10737178474664688
0.4733486473560333 0.19765987992286682 0.12736180424690247
0.3823571801185608 -0.1563444286584854 -0.32793760299682617
0.13840168714523315 -0.11152531206607819 0.21542467176914215
-0.20282089710235596 -0.21780413389205933 0.20709386467933655
0.1740623563528061 -0.2966620922088623 -0.41067248582839966
0.022773295640945435 -0.31957703828811646 0.15758495032787323
0.40660902857780457 0.3791239559650421 0.5339980125427246
-0.06544139236211777 -0.08998262882232666 0.4465620815753937
-0.22879937291145325 0.13149315118789673 0.11873596906661987
0.2547661066055298 0.10814006626605988 0.42865392565727234
-0.4474523663520813 -0.12721982598304749 0.1421298086643219
0.25940632820129395 -0.08629712462425232 0.10639393329620361
0.3495212197303772 0.35730987787246704 0.32218870520591736
0.45334726572036743 0.07593481987714767 0.19210457801818848
-0.352484792470932 0.3351805508136749 -0.5402870178222656
-0.38574540615081787 0.1976374089717865 -0.01842503994703293
-0.07225654274225235 -0.2823036015033722 0.0838204026222229
0.2391497641801834 0.2725990414619446 0.5160893797874451
0.3190765976905823 0.0166863352060318 -0.040638796985149384
0.17655305564403534 0.00542764738202095 0.3258894085884094
0.2863175570964813 -0.03167305886745453 -0.17076829075813293
-0.30363601446151733 -0.14919985830783844 0.34930452704429626
0.24571557343006134 -0.4296664893627167 -0.3235487639904022
-0.20634476840496063 0.25251105427742004 -0.4188271760940552
-0.24887457489967346 0.47488564252853394 -0.3341737687587738
0.23703144490718842 0.4316326677799225 0.34901919960975647
0.07403789460659027 -0.3169296681880951 -0.2117697298526764
0.4904623031616211 0.2191770225763321 0.2877959609031677
-0.20656666159629822 0.06211702898144722 -0.34061136841773987
-0.25481274724006653 -0.10656558722257614 0.39558637142181396
0.38724830746650696 0.161770299077034 0.04714361950755119
0.3423876464366913 0.06819267570972443 -0.09242691099643707
0.22230619192123413 0.3308033049106598 0.06988848000764847
-0.27631044387817383 -0.041009873151779175 -0.07914946973323822
-0.46015241742134094 -0.37084144353866577 0.3905496597290039
-0.3840705156326294 -0.24588856101036072 0.259147047996521
0.45112499594688416 0.24059802293777466 0.3061993718147278
-0.10157933086156845 0.25493958592414856 -0.025223013013601303
0.2370031177997589 -0.22580575942993164 -0.015611696988344193
0.43202853202819824 0.43396684527397156 0.2911323606967926
0.05833671987056732 0.06732838600873947 -0.14160144329071045
-0.23381146788597107 0.5595380067825317 -0.24005065858364105
0.16112765669822693 -0.19905084371566772 0.1354948729276657
-0.26921194791793823 0.326187402009964 -0.020265959203243256
0.15117107331752777 -0.3077593147754669 -0.2549535632133484
0.267802357673645 0.22113558650016785 0.25841426849365234
0.2344374805688858 -0.2101769894361496 -0.4983113408088684
0.2863394021987915 -0.2852317690849304 -0.15380099415779114
-0.18756325542926788 -0.04835887253284454 0.4166695773601532
0.024909835308790207 0.2226397544145584 -0.2075728476047516
-0.37135955691337585 0.28114086389541626 -0.23954173922538757
-0.44405248761177063 0.25370168685913086 -0.17175297439098358
0.4604368209838867 -0.3184221684932709 -0.3554871380329132
-0.4685654640197754 -0.22517606616020203 0.3195626437664032
0.08208443969488144 -0.33894428610801697 -0.29002630710601807
0.5250174403190613 0.23326338827610016 0.2793668508529663
-0.17328298091888428 -0.37633758783340454 0.1837649792432785
0.2954157888889313 -0.4765571653842926 -0.3870414197444916
-0.17357230186462402 -0.061772435903549194 -0.242116317152977
0.41677993535995483 -0.10061174631118774 -0.22320768237113953
-0.18861863017082214 -0.16148346662521362 0.26827341318130493
0.04672626033425331 -0.11065457761287689 -0.35088902711868286
0.20483516156673431 0.09510140120983124 0.33488786220550537
0.42639532685279846 -0.32334867119789124 -0.268443763256073
0.16803093254566193 -0.197030171751976 -0.5104211568832397
-0.15720398724079132 -0.06241616606712341 0.30254897475242615
0.4464911222457886 0.07717366516590118 0.0008294582366943359
0.2815478444099426 -0.10991379618644714 -0.06205447018146515
-0.06452596187591553 -0.15438073873519897 0.48564624786376953
-0.2302202433347702 -0.5058499574661255 0.2700977027416229
-0.19439883530139923 -0.3580206036567688 0.28119826316833496
0.1429174691438675 0.31526631116867065 -0.0006492510437965393
0.29550814628601074 -0.32784098386764526 -0.3814771771430969
-0.07993120700120926 -0.13863879442214966 0.34814080595970154
-0.028363142162561417 0.3764914274215698 0.12973307073116302
0.2555087208747864 0.24080336093902588 0.4878474771976471
-0.1878151148557663 -0.18613843619823456 0.41853535175323486
0.05312861502170563 -0.05298440530896187 -0.49967825412750244
-0.23556888103485107 0.5034291744232178 -0.30667075514793396
-0.3718463182449341 -0.2811097800731659 0.34444940090179443
0.06532019376754761 -0.03024759143590927 -0.4274004399776459
-0.21831898391246796 0.09245770424604416 -0.30286705493927
0.29325130581855774 -0.32138726115226746 -0.1900780349969864
0.05037602037191391 0.06101411581039429 0.5042034983634949
0.03380578011274338 -0.11773471534252167 -0.4860912263393402
0.27706897258758545 -0.30007895827293396 -0.5250897407531738
0.3985559940338135 0.09147688001394272 0.09393073618412018
0.3098215162754059 0.3039357364177704 0.5195680856704712
0.4926477372646332 -0.19745531678199768 -0.2809959352016449
-0.06219739839434624 -0.1278163641691208 0.3585291802883148
0.17905013263225555 0.531367301940918 0.1500488519668579
0.05228811874985695 0.15655583143234253 -0.1426478624343872
0.3730502426624298 -0.3044804334640503 -0.25433558225631714
-0.041033610701560974 -0.42166757583618164 -0.06043151766061783
-0.2995966672897339 0.3587770462036133 -0.48085880279541016
0.3496871590614319 -0.17768436670303345 -0.09160155057907104
-0.08727456629276276 -0.30601435899734497 0.17897239327430725
0.1998647153377533 0.05283110961318016 -0.2614942491054535
0.1976342499256134 0.35895422101020813 0.3838178515434265
0.2912142276763916 -0.10189224034547806 -0.236673966050148
-0.17832298576831818 0.03330405056476593 -0.030416136607527733
-0.21829169988632202 -0.1126602292060852 0.16915473341941833
0.15772078931331635 0.09123630821704865 0.39707499742507935
-0.19322434067726135 -0.1827423870563507 0.41027355194091797
-0.00784955732524395 -0.40266597270965576 0.024513818323612213
-0.3915790915489197 -0.161713108420372 0.3225189447402954
-0.0354168526828289 -0.07501562684774399 0.21840432286262512
-0.15261438488960266 -0.20798145234584808 0.4545917510986328
0.011567220091819763 0.04523124545812607 -0.5205022692680359
-0.12229473143815994 -0.4093761146068573 0.14877530932426453
0.09499744325876236 -0.4210797846317291 0.04277479276061058
0.1709877848625183 -0.318790078163147 -0.2011590600013733
-0.02599390409886837 -0.22283396124839783 0.005864053964614868
0.19022105634212494 0.1510978490114212 0.5229475498199463
-0.2600521743297577 0.07034534215927124 -0.3851469159126282
0.278658926486969 0.37122052907943726 0.3591129779815674
0.25404906272888184 0.26816895604133606 0.5029196739196777
0.0020993798971176147 -0.17628224194049835 -0.24177443981170654
0.043439626693725586 0.4214722514152527 0.022679869085550308
-0.35517433285713196 0.13538116216659546 -0.3208621144294739
0.21677173674106598 0.4663058817386627 0.20026591420173645
-0.2768482267856598 0.35758158564567566 -0.3009883165359497
0.1842426061630249 0.10807253420352936 0.009381763637065887
-0.15754865109920502 -0.2674843668937683 0.27210360765457153
0.12142235040664673 0.46896079182624817 0.057668883353471756
0.229324609041214 -0.3702734708786011 -0.06419672071933746
0.4642610251903534 -0.029121141880750656 0.04465344548225403
-0.2795903980731964 0.09332258254289627 -0.37306302785873413
0.3224353790283203 0.4670616090297699 0.23289622366428375
0.47051990032196045 0.4616527557373047 0.4556218981742859
-0.2528073191642761 -0.4885117709636688 0.20784159004688263
-0.01615878939628601 0.2779509723186493 -0.09084463864564896
0.2511868476867676 -0.17430998384952545 -0.1524319350719452
0.4209546446800232 -0.14014998078346252 0.006591767072677612
0.1557776927947998 0.0853077843785286 0.37144142389297485
0.2958684265613556 -0.04025544226169586 0.22660458087921143
0.06545442342758179 -0.14193056523799896 -0.2730615437030792
-0.38318195939064026 0.032903388142585754 0.10372012108564377
0.219976007938385 -0.005713462829589844 0.21618890762329102
0.1346195787191391 0.2854742407798767 -0.0750720277428627
-0.26862096786499023 0.32846277952194214 -0.254062294960022
-0.20250876247882843 -0.2780500054359436 0.2814517319202423
-0.004947241395711899 0.039937764406204224 0.2951163649559021
-0.25496214628219604 -0.3431480824947357 0.3467925190925598
0.03674643486738205 -0.14722318947315216 -0.41811496019363403
-0.045493196696043015 -0.14752189815044403 -0.2852044403553009
0.24232761561870575 0.4801815152168274 0.2541525363922119
-0.48175424337387085 -0.22451424598693848 0.17375627160072327
0.3201172947883606 -0.04731458052992821 -0.27119284868240356
-0.010189801454544067 -0.1214459091424942 0.16889844834804535
0.15941083431243896 -0.00996241346001625 0.01425875723361969
0.03571891784667969 -0.029706574976444244 -0.263262540102005
-0.2186892032623291 0.2297479659318924 -0.15752486884593964
0.33821555972099304 0.12417840957641602 0.03596697002649307
0.13867975771427155 0.12017881125211716 -0.2722265422344208
-0.3506002724170685 -0.23885945975780487 0.032352857291698456
0.14669188857078552 0.11238272488117218 -0.2973330020904541
-0.03938788175582886 0.11183956265449524 0.4257524907588959
-0.33473557233810425 0.013216051273047924 -0.1381911337375641
0.1962113380432129 0.20602230727672577 -0.03262082487344742
-0.13196446001529694 -0.054692573845386505 -0.1699211597442627
-0.5283253788948059 0.48947930335998535 -0.48343411087989807
-0.41776376962661743 0.2376701384782791 -0.2961050271987915
-0.3307878375053406 -0.324237197637558 0.5588312745094299
0.1733139157295227 0.15372277796268463 0.36915409564971924
0.049106575548648834 0.29059138894081116 -0.1256495714187622
0.29677748680114746 0.09757313132286072 0.1631236970424652
-0.33900099992752075 -0.3082040548324585 0.2042568325996399
0.08228558301925659 0.3503560721874237 -0.02361243963241577
-0.3512028753757477 -0.307746946811676 0.4946148693561554
0.2647349536418915 0.12019792199134827 -0.10304959118366241
0.12978503108024597 0.017546825110912323 0.420806348323822
0.3416895568370819 0.23231211304664612 0.43724578619003296
-0.08093351125717163 0.08970258384943008 -0.5488935112953186
-0.1336132436990738 0.030181892216205597 -0.10974517464637756
-0.08906702697277069 0.11235208809375763 -0.11688639968633652
-0.45030975341796875 0.17978863418102264 -0.30127450823783875
-0.3905968964099884 -0.4895876348018646 0.4739271402359009
-0.459158331155777 -0.31082919239997864 0.23101048171520233
0.18515770137310028 -0.25895482301712036 0.08842362463474274
0.116439089179039 -0.17641425132751465 -0.04185856133699417
0.46731457114219666 0.3039097189903259 0.37113451957702637
0.1331101655960083 0.1612195521593094 0.3144576847553253
-0.06669405847787857 -0.2498648315668106 0.2066965103149414
0.08665913343429565 -0.3606971502304077 0.03609546273946762
-0.13819658756256104 -0.263054221868515 -0.10341217368841171
0.034381888806819916 -0.22335322201251984 0.07191330194473267
-0.1703428477048874 0.08445141464471817 -0.3441247344017029
0.18577244877815247 0.29546040296554565 0.2456343024969101
0.09852956980466843 -0.22188055515289307 -0.20814311504364014
0.2414458841085434 -0.20234227180480957 -0.5200571417808533
0.20962855219841003 0.24241696298122406 -0.11701884865760803
-0.29845649003982544 -0.19262628257274628 0.08836491405963898
-0.053711771965026855 0.5134989023208618 -0.025768697261810303
-0.14804910123348236 0.0661674216389656 0.32538333535194397
-0.06297117471694946 -0.21208339929580688 0.41599735617637634
0.22190992534160614 0.31198757886886597 0.13043935596942902
-0.3303762972354889 -0.26346641778945923 0.2595779299736023
0.0802108645439148 0.11325937509536743 0.36085548996925354
-0.03900374099612236 0.2933128774166107 -0.21837899088859558
0.03142993152141571 -0.21969866752624512 0.1993020921945572
-0.12997882068157196 0.11400280147790909 -0.2611943781375885
0.15869168937206268 -0.00718475878238678 -0.34753453731536865
0.23905035853385925 0.157712921500206 0.38061758875846863
0.15915033221244812 0.3909394443035126 0.301483154296875
-0.3064400553703308 -0.13580213487148285 0.13903065025806427
0.2624354660511017 -0.3898387551307678 -0.14640189707279205
0.21897371113300323 0.09181365370750427 0.4164638817310333
-0.316946804523468 0.15770027041435242 -0.30530595779418945
-0.15534958243370056 0.14180615544319153 -0.5585390329360962
0.21746951341629028 0.05620979517698288 -0.2478885054588318
0.1072336882352829 -0.09937734156847 -0.2913028597831726
-0.30596351623535156 -0.37275975942611694 0.15730661153793335
-0.47950878739356995 0.03522757440805435 -0.0691591277718544
-0.07404668629169464 0.22927039861679077 0.11823181807994843
-0.3713340163230896 -0.35471463203430176 0.20741170644760132
-0.003983497619628906 -0.23663276433944702 0.01940356194972992
-0.008230773732066154 -0.14013248682022095 0.38955965638160706
-0.3740169405937195 0.005876988172531128 0.10176260769367218
-0.004199326038360596 -0.15155673027038574 -0.2919360101222992
0.11929790675640106 0.2857745289802551 0.38619548082351685
-0.09305897355079651 0.0009908024221658707 -0.47766152024269104
0.22318845987319946 0.10014645010232925 0.19958634674549103
-0.25007468461990356 0.10626149922609329 -0.20562240481376648
0.32271087169647217 0.536886990070343 0.28549087047576904
0.06431832164525986 -0.004739154130220413 0.32972338795661926
0.24148300290107727 0.006518893875181675 -0.3255077004432678
0.3365609347820282 -0.19071051478385925 -0.25046539306640625
0.3504598140716553 0.0020103901624679565 -0.12282368540763855
-0.08498011529445648 0.2544483244419098 -0.2669280171394348
-0.5196803212165833 -0.3007047772407532 0.3127727210521698
0.22134289145469666 0.07287345826625824 -0.14557090401649475
0.21223042905330658 -0.344575971364975 -0.08527132868766785
0.3984732925891876 -0.09913445264101028 -0.026952266693115234
-0.34912413358688354 -0.14208783209323883 0.19914862513542175
0.48046404123306274 0.06790812313556671 0.064634770154953
0.16769231855869293 -0.1974308341741562 -0.5108847618103027
0.06164102628827095 0.03274912387132645 0.49088597297668457
-0.322645902633667 -0.49263012409210205 0.31575334072113037
0.2576490640640259 -0.4588991701602936 -0.28210991621017456
-0.43841931223869324 0.361408531665802 -0.2968282401561737
0.025311104953289032 0.3705885410308838 0.19863452017307281
0.16933706402778625 0.07592466473579407 0.3443112373352051
-0.23871779441833496 0.21988192200660706 0.11206182092428207
0.23260104656219482 0.09251135587692261 0.02483854442834854
-0.04974116384983063 -0.36351215839385986 0.2076278030872345
-0.053499966859817505 0.11411863565444946 0.3253856599330902
-0.09987705945968628 0.39520710706710815 -0.07251568883657455
-0.18309694528579712 0.21704961359500885 -0.1447463035583496
