ply
format ascii 1.0
element vertex 796
property float x
property float y
property float z
end_header
-0.3012562096118927 -0.3417509198188782 0.5365031361579895
-0.4393032193183899 0.11779966950416565 -0.020423561334609985
0.06902351975440979 -0.2297752946615219 -0.29888689517974854
0.32318687438964844 -0.4035627841949463 -0.438118577003479
-0.12708169221878052 -0.4904565215110779 0.06961584091186523
0.22513428330421448 -0.5339033603668213 -0.2538672089576721
-0.1761079877614975 0.021723449230194092 -0.4156087338924408
0.2006211280822754 0.2995368540287018 0.08087076246738434
0.38898569345474243 -0.13890670239925385 -0.24823975563049316
0.48316797614097595 0.21922177076339722 0.16455525159835815
-0.04709114134311676 0.39828601479530334 -0.20639750361442566
0.26512956619262695 -0.08953212201595306 -0.39187389612197876
0.4212399125099182 0.2439090609550476 0.09273818135261536
-0.07805517315864563 -0.16672059893608093 0.3350442051887512
-0.32770270109176636 -0.3720354437828064 0.45619723200798035
0.12482377886772156 -0.47469285130500793 -0.06057651340961456
0.3510870337486267 0.05132870376110077 0.25838688015937805
-0.11313161253929138 0.3143394887447357 -0.1594816893339157
-0.3452409505844116 -0.13150538504123688 0.20893427729606628
0.11605465412139893 0.2229224443435669 0.3931422829627991
-0.23064780235290527 0.4001363515853882 -0.0921039879322052
0.1733512282371521 -0.08860695362091064 -0.33472710847854614
-0.2019995152950287 0.24437165260314941 -0.4560386836528778
0.1876753717660904 0.41086095571517944 0.06065578758716583
0.38251280784606934 0.49410560727119446 0.31900301575660706
-0.09741872549057007 -0.04162232577800751 0.44817662239074707
-0.33738449215888977 0.2678639590740204 -0.0645868182182312
-0.4573673605918884 0.4226071238517761 -0.32096853852272034
0.05999144911766052 0.4999786913394928 0.12819086015224457
-0.2586793899536133 0.5386644601821899 -0.22457969188690186
-0.4180148243904114 -0.019342899322509766 0.1763852834701538
-0.4976825416088104 0.27900367975234985 -0.20048248767852783
0.039833858609199524 -0.1491732895374298 -0.38891637325286865
-0.26875820755958557 0.21408848464488983 -0.48313331604003906
0.15429602563381195 0.39571937918663025 0.047108471393585205
0.3658231496810913 -0.09081543982028961 -0.26512089371681213
0.4715867042541504 0.24326741695404053 0.15611468255519867
0.5244684815406799 -0.16704142093658447 -0.2106177806854248
0.5509093999862671 0.2051544189453125 0.18336623907089233
-0.013220429420471191 0.391252338886261 -0.19699200987815857
0.28206491470336914 0.48430129885673523 0.19017912447452545
0.4297075867652893 0.5308257937431335 0.38376468420028687
-0.07382133603096008 0.5540879964828491 -0.0967927873134613
-0.3255857825279236 0.5657191276550293 -0.3370715379714966
0.12588223814964294 0.5715346932411194 0.12013936042785645
0.3516162633895874 -0.002907782793045044 -0.2286054491996765
-0.11286699771881104 -0.29012900590896606 0.17437240481376648
-0.34510862827301025 -0.43373963236808777 0.37586134672164917
-0.46122944355010986 -0.5055449604988098 0.4766058027744293
-0.5192898511886597 -0.541447639465332 0.5269780158996582
0.029030203819274902 0.01795130968093872 0.5521641373634338
-0.2741600275039673 -0.2796994745731354 0.564757227897644
0.1515951156616211 0.14882539212703705 0.5710537433624268
0.3644726872444153 0.36308783292770386 0.5742020010948181
-0.1064387857913971 -0.10713121294975281 0.5757761001586914
-0.3418945074081421 0.23510952293872833 -0.0007870793342590332
0.11772787570953369 -0.17112037539482117 -0.28906866908073425
-0.2298111915588379 -0.3742353320121765 0.1441407948732376
-0.4035807251930237 -0.475792795419693 0.36074551939964294
0.0868847668170929 -0.52657151222229 -0.10830236971378326
-0.2452327460050583 0.025389373302459717 -0.34282630681991577
0.166058748960495 -0.2759804427623749 -0.4600882828235626
0.3717045187950134 -0.42666536569595337 -0.5187192559242249
0.47452738881111145 -0.5020078420639038 -0.5480347871780396
0.5259388089179993 -0.5396790504455566 -0.5626925230026245
-0.025705724954605103 -0.5585146546363831 0.0073288679122924805
-0.3015279769897461 -0.5679324865341187 0.292339563369751
-0.4394391179084778 -0.5726413726806641 0.4348449110984802
0.06895557045936584 0.002354443073272705 0.5060975551605225
-0.254197359085083 0.2898523509502411 -0.035626351833343506
-0.41577380895614624 0.4336013197898865 -0.3064883053302765
0.08078822493553162 -0.0718744695186615 -0.4419192671775818
0.32906925678253174 0.2527378797531128 0.06771549582481384
-0.12414050102233887 -0.16230618953704834 0.32253289222717285
0.2266048789024353 0.20752203464508057 0.44994157552719116
0.4019775688648224 -0.18491411209106445 -0.06370434165000916
-0.08768634498119354 -0.38113218545913696 0.25682294368743896
0.24483194947242737 0.09810903668403625 0.4170866012573242
-0.16625915467739105 0.33772963285446167 -0.08013182878494263
0.2055455446243286 -0.1198103129863739 -0.32874104380607605
0.39144790172576904 -0.3485803008079529 -0.45304566621780396
0.48439908027648926 0.1143849790096283 0.06215229630470276
-0.04647558927536011 -0.2314826399087906 0.3197512626647949
0.2654373347759247 0.17293381690979004 0.4485507607460022
-0.1559564620256424 -0.20220822095870972 0.5129505395889282
-0.36665335297584534 0.18757101893424988 -0.032199859619140625
-0.4720017910003662 -0.1948896199464798 0.2725751996040344
0.05267423391342163 0.19123032689094543 0.42496272921562195
-0.2623380124568939 0.38429027795791626 -0.07619376480579376
0.15750612318515778 0.48082026839256287 0.25057825446128845
0.367428183555603 0.5290852785110474 0.41396427154541016
0.47238922119140625 0.5532177686691284 0.4956572651863098
0.5248697400093079 0.565284013748169 0.536503791809082
-0.026240259408950806 -0.006033122539520264 0.5569270253181458
0.2755550146102905 -0.29169169068336487 -0.01021161675453186
0.42645263671875 -0.434520959854126 -0.2937809228897095
0.5019014477729797 0.07141464948654175 0.14178466796875
0.539625883102417 0.3243824541568756 0.35956746339797974
-0.01886218786239624 -0.12648390233516693 0.4684588611125946
-0.29810622334480286 0.22543317079544067 -0.054445698857307434
-0.43772822618484497 0.4013917148113251 -0.31589797139167786
0.06981101632118225 -0.0879792720079422 -0.44662410020828247
-0.2537696361541748 -0.33266475796699524 0.0653630793094635
0.16179031133651733 0.12234275043010712 0.3213566541671753
0.3695702850818634 0.3498465120792389 0.4493534564971924
0.47346025705337524 0.463598370552063 0.5133518576622009
0.5254052877426147 0.5204743146896362 0.5453510284423828
0.5513777732849121 -0.02843797206878662 -0.01599961519241333
-0.012986242771148682 -0.30289411544799805 0.28067532181739807
0.2821820080280304 -0.44012218713760376 -0.1483374685049057
-0.14758412539958954 0.06861403584480286 -0.3628438711166382
-0.3624671995639801 0.32298213243484497 -0.47009706497192383
-0.4699087142944336 -0.12718406319618225 0.05362659692764282
0.05372077226638794 -0.35226714611053467 -0.2618618309497833
0.3155355155467987 0.1125415563583374 0.15774421393871307
0.4464429020881653 0.34494590759277344 0.36754724383354187
-0.0654536783695221 -0.11620217561721802 0.47244876623153687
-0.3214019536972046 -0.34677621722221375 0.5248994827270508
-0.44937610626220703 0.11528702080249786 -0.026225388050079346
-0.5133631825447083 0.34631863236427307 -0.3017878234386444
-0.5453567504882812 0.4618344306945801 -0.43956905603408813
-0.5613535046577454 -0.0577579140663147 0.06889060139656067
-0.5693519115447998 -0.3175540864467621 0.3231204152107239
0.003999173641204834 -0.447452187538147 -0.1271149218082428
0.29067471623420715 0.06494903564453125 0.22511766850948334
-0.14333777129650116 0.32114964723587036 -0.17611628770828247
-0.3603440225124359 0.4492499530315399 -0.37673327326774597
0.10850311815738678 -0.06405015289783478 -0.4770417809486389
-0.23442357778549194 0.25665006041526794 -0.5271960496902466
-0.4058869183063507 -0.16035009920597076 0.025077104568481445
-0.4916185736656189 -0.3688501715660095 0.30121368169784546
-0.5344843864440918 -0.4731002151966095 0.43928197026252747
-0.5559173226356506 -0.5252252221107483 0.5083160996437073
0.010716468095779419 0.02606251835823059 0.5428332090377808
-0.2833169102668762 0.30170637369155884 -0.017258524894714355
0.14701667428016663 0.43952831625938416 0.28004586696624756
-0.21516679227352142 0.508439302444458 -0.14865219593048096
0.18109172582626343 -0.03445547819137573 -0.3630012273788452
0.37922099232673645 -0.3059028685092926 -0.47017574310302734
0.47828561067581177 0.13572369515895844 0.053587257862091064
0.527817964553833 -0.22081327438354492 -0.2618815004825592
0.5525841116905212 0.17826849222183228 0.15773437917232513
-0.012383073568344116 -0.1995408833026886 0.3675423264503479
0.2824835777282715 0.18890468776226044 0.4724462926387787
0.4299169182777405 0.38312748074531555 0.5248982906341553
0.5036336183547974 0.4802388548851013 0.5511242747306824
0.5404919385910034 0.528794527053833 0.5642372369766235
0.5589210987091064 -0.024277865886688232 -0.006556510925292969
0.568135678768158 0.2765361964702606 0.28539687395095825
-0.004607290029525757 -0.15040703117847443 0.43137356638908386
-0.2909787893295288 0.21347162127494812 -0.0729883462190628
0.14318573474884033 -0.18193931877613068 -0.32516929507255554
0.3602679967880249 -0.3796447813510895 -0.4512597918510437
0.4688091278076172 0.09885273873806 0.06304523348808289
0.5230796933174133 -0.23924875259399414 -0.2571524977684021
-0.02713528275489807 0.16905075311660767 -0.4172513782978058
0.2751075029373169 0.37320050597190857 0.08004944026470184
-0.1511213779449463 -0.10207487642765045 0.32869985699653625
0.2131144404411316 -0.33971256017684937 -0.12432520091533661
-0.18211790919303894 -0.4585314095020294 0.22651252150535583
0.19761617481708527 0.05940942466259003 0.40193140506744385
0.3874832093715668 -0.2589704096317291 -0.08770942687988281
0.4824167490005493 -0.4181603193283081 -0.33252984285354614
0.5298835039138794 -0.4977552890777588 -0.4549400508403778
0.5536168813705444 -0.5375527739524841 -0.5161451697349548
0.565483570098877 -0.5574514865875244 -0.5467476844787598
-0.00593334436416626 -0.5674008727073669 0.015301287174224854
0.2857084572315216 0.004974693059921265 0.29632577300071716
-0.14582090079784393 0.29116249084472656 -0.14051224291324615
0.21576467156410217 0.434256374835968 0.21841901540756226
-0.18079279363155365 -0.07154694199562073 0.39788463711738586
-0.37907153367996216 0.25290167331695557 -0.0897328108549118
0.09913936257362366 -0.16222429275512695 -0.33354154229164124
-0.2391054481267929 -0.3697872757911682 0.12190435826778412
-0.4082278609275818 -0.47356876730918884 0.3496273159980774
-0.49278905987739563 0.051890745759010315 -0.11386147141456604
0.04228059947490692 0.3146204948425293 0.23174439370632172
-0.2675348222255707 0.4459853768348694 -0.17280292510986328
-0.42244255542755127 0.5116678476333618 -0.3750765919685364
-0.49989640712738037 0.5445090532302856 -0.4762134253978729
-0.5386233329772949 -0.016420602798461914 0.050568416714668274
0.019363462924957275 -0.2968854308128357 -0.2633909285068512
-0.2789933979511261 -0.4371178448200226 0.15697966516017914
-0.4281718134880066 0.07011620700359344 -0.21018528938293457
-0.5027610063552856 -0.2536170184612274 0.18358248472213745
0.037294626235961914 0.16186662018299103 0.38046637177467346
-0.2700278162956238 0.36960843205451965 -0.098441943526268
0.15366122126579285 0.47347933053970337 0.23945415019989014
0.36550575494766235 -0.05193546414375305 -0.16894805431365967
-0.10592225193977356 0.2627074122428894 -0.37314915657043457
-0.3416362404823303 -0.15732142329216003 0.10210055112838745
-0.4594932496547699 -0.36733585596084595 0.33972540497779846
-0.5184217691421509 0.10500720143318176 -0.1188124269247055
-0.5478860139846802 -0.23617152869701385 0.2292689085006714
-0.5626181364059448 -0.40676090121269226 0.40330958366394043
-0.5699841976165771 -0.49205559492111206 0.49032992124557495
-0.5736672282218933 -0.5347028970718384 0.5338400602340698
0.001841515302658081 -0.5560265779495239 -0.021755099296569824
0.28959590196609497 0.010661840438842773 0.2777975797653198
0.4334730803966522 -0.28334420919418335 -0.14977633953094482
-0.07193858921527863 -0.4303472340106964 0.21378695964813232
-0.32464441657066345 0.07350151240825653 -0.18178164958953857
0.126352921128273 0.3254258930683136 0.19778430461883545
-0.22549867630004883 -0.12596218287944794 0.38756728172302246
0.17592579126358032 -0.3516562283039093 -0.0948914885520935
-0.20071223378181458 -0.4645032286643982 0.24122938513755798
0.18831901252269745 0.05642351508140564 0.4092898368835449
-0.19451561570167542 0.31688690185546875 -0.08403021097183228
0.19141732156276703 0.4471185803413391 0.2466600239276886
-0.19296646118164062 -0.06511583924293518 0.41200512647628784
-0.38515836000442505 -0.32123303413391113 0.49467769265174866
-0.48125430941581726 0.12805861234664917 -0.04133628308773041
-0.5293022990226746 0.3527044355869293 -0.30934327840805054
-0.5533262491226196 0.4650273323059082 -0.44334676861763
0.012012004852294922 -0.056161463260650635 -0.5103484988212585
0.2946811318397522 0.2605943977832794 0.033500880002975464
-0.14133456349372864 -0.15837793052196503 0.30542558431625366
0.21800784766674042 0.20948615670204163 0.44138792157173157
0.39767906069755554 0.39341819286346436 0.5093690752983093
0.4875146746635437 0.4853842258453369 0.543359637260437
-0.044917792081832886 0.5313672423362732 -0.01699531078338623
0.2662162184715271 -0.02299150824546814 -0.29717278480529785
0.4217832386493683 -0.3001708984375 -0.43726152181625366
-0.0777835100889206 0.13858968019485474 -0.5073058605194092
0.24978336691856384 -0.21938028931617737 -0.5423280596733093
0.41356682777404785 0.17898498475551605 0.017511099576950073
0.49545854330062866 -0.1991826295852661 -0.2799195647239685
0.5364043712615967 -0.3882664442062378 -0.428634911775589
0.5568773150444031 0.09454190731048584 0.07435767352581024
-0.010236471891403198 -0.24140417575836182 0.32585397362709045
0.28355687856674194 -0.40937721729278564 -0.1257481426000595
-0.14689669013023376 -0.49336373805999756 0.22580105066299438
0.21522678434848785 -0.5353569984436035 -0.17577460408210754
0.39628851413726807 -0.5563536286354065 -0.3765624165534973
-0.0905308723449707 -0.5668519735336304 0.10039392113685608
0.24340969324111938 0.005249142646789551 0.3388720750808716
-0.16697028279304504 -0.28605055809020996 0.4581111669540405
0.20518998801708221 0.14564985036849976 0.517730712890625
-0.18608012795448303 -0.21585020422935486 0.5475404858589172
-0.38171517848968506 0.1807500272989273 -0.014904886484146118
-0.47953271865844727 -0.19830012321472168 0.28122270107269287
0.048908770084381104 0.1895250678062439 0.42928647994995117
-0.2642207443714142 -0.1939125955104828 0.5033183693885803
-0.42078548669815063 0.19171883165836334 -0.037015944719314575
0.07828238606452942 0.3845345377922058 0.27016717195510864
0.32781630754470825 0.48094239830970764 0.42375871539115906
0.45258328318595886 -0.048203930258750916 -0.07679577171802521
0.5149667859077454 0.2645731568336487 0.25027725100517273
-0.031191736459732056 -0.1563885509967804 0.4138137698173523
0.2730792760848999 0.21048085391521454 0.4955820143222809
0.4252147674560547 0.3939155638217926 0.536466121673584
-0.07606774568557739 -0.09171734750270844 0.5569081902503967
-0.32670900225639343 0.24281644821166992 -0.010221034288406372
0.12532062828540802 0.4100833535194397 0.28356462717056274
0.35133543610572815 0.4937168061733246 0.4304574429988861
0.4643428325653076 0.5355335474014282 0.503903865814209
-0.05650371313095093 0.5564419031143188 -0.036723196506500244
0.2604232728481293 -0.010454177856445312 -0.30703672766685486
0.41888678073883057 0.2834480404853821 0.1351567655801773
-0.07923173904418945 -0.1469511091709137 0.3562535047531128
-0.32829099893569946 -0.3621506690979004 0.46680188179016113
-0.45282062888145447 -0.46975046396255493 0.5220760703086853
0.0622648149728775 0.05379989743232727 0.549713134765625
0.3198075294494629 0.3155750632286072 0.5635316967964172
-0.1287713646888733 0.4464626610279083 -0.006909281015396118
-0.3530608117580414 -0.06544379889965057 0.28522050380706787
-0.4652055501937866 -0.3213970363140106 0.43128538131713867
-0.521277904510498 -0.44937366247177124 0.5043178200721741
0.028036177158355713 -0.513361930847168 -0.0365162193775177
-0.2746570408344269 0.03199416399002075 -0.3069332242012024
-0.426003634929657 -0.27267804741859436 0.13520851731300354
0.07567331194877625 0.15233610570430756 0.3562793731689453
0.32651180028915405 -0.21250706911087036 -0.11053544282913208
0.45193102955818176 -0.3949286639690399 -0.3439428508281708
0.5146406292915344 0.09121079742908478 0.11670370399951935
0.5459954738616943 -0.24306973814964294 -0.23032328486442566
-0.01567739248275757 0.16714026033878326 -0.40383678674697876
0.28083643317222595 0.37224525213241577 0.08675673604011536
0.4290933609008789 -0.10255250334739685 -0.24529676139354706
0.5032218098640442 0.2373988777399063 0.1660267412662506
0.5402860641479492 0.4073745608329773 0.37168848514556885
0.5588181614875793 0.4923624098300934 0.47451937198638916
-0.009266048669815063 -0.042493924498558044 0.5259348154067993
-0.2933081388473511 0.2674281597137451 -0.025707721710205078
-0.4353291988372803 -0.15496104955673218 0.2758212685585022
0.0710105299949646 0.21119460463523865 0.42658576369285583
0.32418039441108704 0.39427244663238525 0.5019680261611938
0.45076531171798706 -0.09153890609741211 -0.03769111633300781
0.5140577554702759 -0.3344445824623108 -0.30752068758010864
0.5457040071487427 -0.45589742064476013 -0.44243547320365906
0.5615271329879761 0.06072641909122467 0.06745739281177521
0.5694386959075928 -0.258311927318573 -0.25494644045829773
-0.00395578145980835 0.15951916575431824 -0.4161483645439148
-0.2906530201435089 0.36843472719192505 -0.49674931168556213
0.14334861934185028 0.47289249300956726 0.04030047357082367
0.3603494465351105 -0.052228882908821106 -0.2685248851776123
-0.1085004061460495 -0.3147895634174347 0.15441268682479858
0.2344249188899994 0.1312803477048874 0.36588147282600403
0.4058876037597656 0.35431531071662903 0.47161585092544556
-0.08573132753372192 -0.11151747405529022 0.5244830846786499
0.24580946564674377 0.23291638493537903 0.5509166717529297
-0.16577039659023285 -0.17221693694591522 0.5641334652900696
-0.37156033515930176 -0.37478360533714294 0.5707418918609619
0.10289496183395386 -0.4760669469833374 -0.0033041834831237793
0.34012261033058167 0.050641655921936035 0.28702303767204285
-0.1186138242483139 0.31399595737457275 -0.1451636105775833
0.2293682098388672 -0.13167715072631836 -0.3612569272518158
0.40335923433303833 -0.3545137047767639 -0.46930360794067383
0.4903547465801239 -0.4659319818019867 -0.5233269333839417
0.5338525176048279 0.05570913851261139 0.02701166272163391
0.5556013584136963 -0.26082056760787964 -0.275169312953949
0.5664758086204529 -0.41908541321754456 -0.4262597858905792
-0.005437225103378296 -0.4982178211212158 0.07554523646831512
-0.2913937568664551 -0.5377840399742126 0.3264477550983429
-0.4343720078468323 0.019783109426498413 -0.1254512518644333
-0.5058611631393433 -0.27878355979919434 0.2259494960308075
-0.5416057109832764 -0.4280669093132019 0.4016498923301697
0.017872273921966553 -0.5027085542678833 -0.0878501832485199
0.297611266374588 -0.5400294065475464 -0.3326002359390259
-0.13986949622631073 -0.5586898326873779 0.1223750114440918
0.21874037384986877 -0.5680200457572937 -0.22748762369155884
-0.17930494248867035 -0.5726851224899292 0.17493131756782532
0.19902265071868896 -0.5750176906585693 -0.20120947062969208
-0.18916380405426025 0.0011662840843200684 -0.38927987217903137
-0.38325703144073486 -0.2880919873714447 0.09403519332408905
0.0970466136932373 0.14462913572788239 0.33569273352622986
-0.24015182256698608 0.36098968982696533 -0.12082876265048981
-0.4087510406970978 -0.10818028450012207 0.22826075553894043
0.08429960906505585 0.2345849871635437 0.40280550718307495
0.33082494139671326 0.4059676229953766 0.4900778830051422
0.45408761501312256 -0.08569131791591644 -0.04363618791103363
0.515718936920166 0.24582946300506592 0.2668570280075073
0.5465345978736877 -0.16576039791107178 -0.15524661540985107
0.561942458152771 -0.3715553283691406 -0.3662984371185303
0.5696463584899902 0.10289746522903442 0.1055259108543396
-0.003851950168609619 0.34012386202812195 -0.23591217398643494
-0.29060110449790955 0.4587370753288269 -0.4066312313079834
-0.4339756965637207 -0.059306591749191284 0.08535951375961304
-0.5056629776954651 0.2590218186378479 -0.24599537253379822
-0.5415066480636597 -0.1591642200946808 0.16567744314670563
-0.5594284534454346 -0.36825722455978394 0.37151384353637695
-0.568389356136322 -0.4728037416934967 0.4744320511817932
0.004480451345443726 -0.5250769853591919 -0.05145910382270813
-0.2864348888397217 0.02613663673400879 -0.3144046664237976
-0.4318925738334656 -0.27560681104660034 0.13147279620170593
0.07272884249687195 -0.4264785349369049 -0.22293873131275177
0.3250395655632019 -0.501914381980896 -0.4001444876194
0.4511949121952057 -0.5396323204040527 -0.48874735832214355
-0.06307767331600189 0.01885896921157837 -0.5330488085746765
-0.3202139735221863 -0.27924564480781555 0.02215072512626648
0.1285681426525116 -0.4282979369163513 -0.2775997519493103
-0.22439105808734894 -0.502824068069458 0.14987525343894958
-0.4008706510066986 -0.5400871634483337 0.3636127710342407
-0.48911046981811523 -0.5587186813354492 0.4704815149307251
0.04411989450454712 -0.5680344700813293 -0.05343437194824219
-0.2666151821613312 0.0046578943729400635 -0.31539231538772583
-0.42198270559310913 -0.2863461971282959 0.13097897171974182
-0.4996664822101593 -0.4318482279777527 0.35416460037231445
-0.5385083556175232 -0.5045992136001587 0.46575742959976196
-0.557929277420044 0.03637552261352539 -0.055796414613723755
-0.5676397681236267 -0.27048736810684204 0.26077693700790405
-0.5724949836730957 0.15343144536018372 -0.1582866609096527
-0.5749226212501526 -0.21195940673351288 0.20953179895877838
-0.5761364698410034 -0.3946548402309418 0.39344102144241333
0.0006068944931030273 -0.4860025644302368 -0.09195461869239807
-0.2883716821670532 -0.5316764116287231 0.2426978200674057
0.14448928833007812 0.022836923599243164 0.4100240468978882
-0.21643048524856567 -0.27725666761398315 0.49368715286254883
-0.3968903720378876 0.15004679560661316 -0.04183155298233032
0.09022994339466095 0.3636985421180725 0.2677593529224396
-0.24356016516685486 -0.10682585835456848 0.42255479097366333
0.1668950468301773 0.2352622002363205 0.4999525249004364
-0.20522761344909668 0.4063062369823456 -0.038698866963386536
-0.3912889361381531 0.4918282628059387 -0.3080245554447174
0.0930306613445282 -0.042760998010635376 -0.44268739223480225
-0.24215979874134064 -0.31005561351776123 0.06733143329620361
0.16759523749351501 -0.44370293617248535 -0.25500941276550293
0.37247276306152344 0.06682366132736206 0.16117042303085327
0.47491151094436646 -0.2552632987499237 -0.2080899178981781
-0.05121937394142151 0.16104348003864288 -0.392720103263855
0.2630654573440552 -0.2081533968448639 -0.4850351810455322
0.4202078580856323 -0.3927518129348755 -0.5311927199363708
-0.07857120037078857 0.09229922294616699 -0.5542714595794678
-0.327960729598999 -0.24252551794052124 0.01153939962387085
-0.45265549421310425 0.16741237044334412 -0.2829054296016693
0.06234738230705261 -0.20496894419193268 -0.4301278591156006
0.31984883546829224 -0.3911595940589905 -0.503739058971405
0.44859954714775085 -0.4842549264431 -0.5405446290969849
0.5129749178886414 0.04654766619205475 0.018402814865112305
-0.03218767046928406 0.3119489550590515 -0.2794737219810486
0.2725812792778015 0.4446496069431305 0.14893826842308044
-0.15238448977470398 0.5109999179840088 -0.21420599520206451
0.21248288452625275 -0.03317517042160034 -0.3957781195640564
0.3949165642261505 0.27208754420280457 0.09078606963157654
-0.09121684730052948 0.4247189164161682 -0.24328209459781647
0.2430666983127594 -0.07631567120552063 -0.4103161692619324
0.41020846366882324 -0.32683295011520386 -0.4938332140445709
-0.08357089757919312 -0.45209160447120667 0.041758522391319275
0.24688968062400818 0.0626293271780014 0.30955439805984497
0.41211998462677 -0.25736045837402344 -0.13389793038368225
0.49473512172698975 -0.41735535860061646 -0.35562407970428467
-0.04130756855010986 0.07999745011329651 -0.46648716926574707
0.2680213451385498 -0.24867640435695648 -0.5219187140464783
0.42268580198287964 0.1643369197845459 0.0277157723903656
-0.07733222842216492 0.3708435893058777 -0.27481722831726074
0.2500090003013611 0.4740969240665436 0.15126651525497437
0.4136796295642853 -0.05162666738033295 -0.21304187178611755
-0.0818353146314621 0.26286178827285767 -0.3951960802078247
0.2477574646472931 -0.1572442352771759 -0.4862731695175171
-0.1647963970899582 0.21005301177501678 -0.5318117141723633
0.20627692341804504 0.3937016427516937 0.022769272327423096
0.39181357622146606 0.4855259656906128 0.3000597655773163
-0.0927683413028717 -0.04591214656829834 0.4387050271034241
-0.3350592851638794 0.26571905612945557 -0.0693226158618927
0.12114548683166504 0.4215346574783325 0.2540138363838196
0.34924787282943726 -0.07790780067443848 -0.16166821122169495
0.46329906582832336 0.2497212290763855 0.20784102380275726
-0.057025596499443054 -0.163814514875412 0.39259564876556396
0.2601623237133026 0.20676787197589874 0.4849729537963867
-0.15859396755695343 -0.18529120087623596 0.5311616063117981
-0.36797210574150085 -0.3813207149505615 0.5542559623718262
0.10468907654285431 0.09801477193832397 0.5658031105995178
-0.23633059859275818 0.3376825153827667 -0.005773574113845825
0.17050983011722565 -0.11983387172222137 -0.29156190156936646
0.37393003702163696 -0.348592072725296 -0.43445608019828796
-0.10171011090278625 -0.46297115087509155 0.07144708931446075
0.2378200739622116 -0.5201606750488281 -0.25295159220695496
0.40758517384529114 -0.5487554669380188 -0.4151509404182434
0.4924677014350891 -0.5630528926849365 -0.49625059962272644
-0.04244127869606018 -0.570201575756073 0.040549829602241516
0.26745450496673584 -0.5737758874893188 -0.2684002220630646
-0.15494787693023682 0.0017871856689453125 -0.42287522554397583
0.21120119094848633 0.2895687222480774 0.07723751664161682
-0.18307453393936157 -0.14389076828956604 0.32729387283325195
-0.3802123963832855 0.21672974526882172 -0.12502819299697876
0.09856893122196198 0.3970400094985962 0.22616103291511536
-0.23939067125320435 -0.09015512466430664 0.4017556309700012
0.16897979378700256 -0.33375269174575806 -0.08779731392860413
0.3731650114059448 0.12179878354072571 0.24477647244930267
-0.10209262371063232 -0.22777573764324188 0.41106337308883667
0.23762881755828857 0.1747872531414032 0.49420681595802307
-0.16986072063446045 0.37606877088546753 -0.0415717214345932
0.2037447690963745 0.4767095148563385 0.26788926124572754
0.390547513961792 -0.050320371985435486 -0.15473049879074097
0.48394888639450073 0.2635149359703064 0.21130988001823425
0.5306495428085327 -0.15691766142845154 -0.1830201894044876
0.5539999008178711 -0.3671339750289917 -0.38018521666526794
0.5656750798225403 -0.4722421169281006 -0.4787677526473999
0.5715126991271973 -0.524796187877655 -0.5280590057373047
0.5744314789772034 0.02627703547477722 0.024645626544952393
0.5758908987045288 -0.27553659677505493 -0.27635231614112854
-0.000729680061340332 0.15090683102607727 -0.4268512725830078
0.28831028938293457 -0.2132217139005661 -0.5021007657051086
0.432830274105072 -0.3952859938144684 -0.5397255420684814
-0.07225999236106873 0.09103213250637054 -0.5585379004478455
-0.3248051404953003 -0.24315905570983887 0.009406179189682007
0.1262725591659546 0.1670956015586853 0.29337823390960693
0.35181140899658203 0.3722229301929474 0.4353642463684082
-0.11276942491531372 -0.10256366431713104 0.5063572525978088
0.23229041695594788 -0.33995696902275085 -0.03549650311470032
-0.1725299209356308 0.11869664490222931 -0.3064233660697937
-0.37494009733200073 -0.22932681441307068 0.13546344637870789
0.10120508074760437 0.1740117222070694 0.3564068675041199
-0.23807258903980255 0.37568098306655884 -0.1104716956615448
-0.4077114164829254 0.47651562094688416 -0.34391099214553833
0.08481942117214203 -0.05041731894016266 -0.4606306254863739
-0.24626541137695312 0.263466477394104 -0.5189904570579529
-0.4118078351020813 0.42040836811065674 -0.5481703281402588
0.08277121186256409 -0.07847094535827637 -0.5627602934837341
-0.2472895234823227 -0.3279106020927429 0.007294982671737671
0.1650303602218628 -0.4526304304599762 -0.2850276231765747
-0.20615994930267334 -0.5149903297424316 0.14616131782531738
0.18559515476226807 0.031179964542388916 0.3617557883262634
-0.1958775520324707 -0.2730851471424103 0.46955302357673645
0.19073635339736938 0.1521325558423996 0.5234516263008118
0.38404330611228943 0.36474141478538513 0.550400972366333
0.48069679737091064 -0.10630442202091217 -0.013474643230438232
0.5290235280990601 -0.3418273329734802 -0.29541245102882385
0.5531868934631348 0.11776146292686462 0.1409689038991928
0.5652685761451721 -0.22979439795017242 -0.21819067001342773
0.5713094472885132 0.17377793788909912 0.17957979440689087
-0.0030204057693481445 -0.20178616046905518 0.37846502661705017
-0.2901853322982788 0.18778204917907715 -0.09944261610507965
-0.43376779556274414 -0.19478410482406616 0.2389538288116455
-0.5055590271949768 0.19128307700157166 -0.16919821500778198
0.03589561581611633 -0.1930335909128189 -0.3732742369174957
0.3066229224205017 0.19215834140777588 0.10203801095485687
0.4419865906238556 0.3847543001174927 0.33969414234161377
0.5096684098243713 -0.0962979793548584 -0.11882805824279785
-0.03384092450141907 0.24052613973617554 -0.34808915853500366
-0.3055955767631531 0.4089381992816925 -0.46271970868110657
-0.4414729177951813 -0.08420602977275848 0.05731527507305145
-0.5094115734100342 -0.3307781517505646 0.31733277440071106
-0.5433809161186218 0.12328605353832245 -0.1300087422132492
-0.5603655576705933 0.35031816363334656 -0.35367950797080994
0.008492350578308105 0.4638342261314392 0.11183537542819977
-0.2844289541244507 0.520592212677002 -0.23275744915008545
-0.4308896064758301 0.5489712357521057 -0.40505385398864746
0.0732303261756897 0.56316077709198 0.086148202419281
-0.2520599663257599 -0.007094740867614746 0.33174923062324524
0.1626451462507248 -0.2922224998474121 -0.12280051410198212
-0.20735254883766174 0.14256387948989868 -0.3500753939151764
0.18499885499477386 0.3599570691585541 0.11363743245601654
0.38117456436157227 0.46865367889404297 0.3454938530921936
-0.0980878472328186 0.5230019688606262 -0.11592820286750793
-0.33771905303001404 -0.027174144983291626 0.23071102797985077
0.11981560289859772 -0.30226218700408936 -0.17331960797309875
-0.22876733541488647 0.13754403591156006 -0.3753349184989929
0.1742914617061615 -0.2199031114578247 -0.4763425886631012
0.3758208751678467 0.17872357368469238 0.05050383508205414
-0.1007646918296814 -0.19931334257125854 0.3139270544052124
0.23829278349876404 0.18901845812797546 0.44563865661621094
-0.16952873766422272 0.38318437337875366 -0.06585580110549927
0.20391076803207397 0.48026731610298157 0.2557472288608551
-0.18671974539756775 -0.04854147136211395 0.4165487289428711
-0.3820350170135498 -0.3129458725452423 0.4969494938850403
0.09765762090682983 0.13220219314098358 0.5371499061584473
0.33750393986701965 0.3547762334346771 0.5572500824928284
-0.11992315948009491 0.4660632610321045 -0.010050088167190552
0.22871354222297668 -0.05564349889755249 -0.2937001585960388
0.4030318856239319 0.2608533799648285 0.14182505011558533
-0.0871591866016388 -0.1582484394311905 0.3595876693725586
0.24509553611278534 0.2095509171485901 0.46846896409988403
0.411222904920578 -0.1838996708393097 -0.05444064736366272
-0.08306367695331573 -0.3806249499320984 0.26145482063293457
0.24714329838752747 -0.47898760437965393 -0.15794771909713745
0.4122467637062073 0.04918132722377777 0.209701269865036
0.4947985112667084 0.3132658004760742 0.39352577924728394
-0.04127587378025055 0.44530802965164185 -0.09191223978996277
-0.3093130588531494 0.511329174041748 -0.3346312642097473
0.13401859998703003 -0.03301054239273071 -0.4559907615184784
0.35568442940711975 -0.3051804006099701 -0.5166705250740051
0.4665173292160034 -0.441265344619751 -0.5470104217529297
-0.05541646480560303 0.06804245710372925 -0.5621803402900696
-0.31638336181640625 -0.2546539008617401 0.007584959268569946
-0.44686681032180786 -0.416002094745636 0.2924675941467285
0.0652417242527008 0.08067408204078674 0.434908926486969
-0.2560542821884155 -0.24833808839321136 0.5061296224594116
-0.4167022705078125 -0.412844181060791 0.5417399406433105
0.08032399415969849 0.08225303888320923 0.55954509973526
0.328837126493454 0.32980164885520935 0.5684477090835571
-0.12425656616687775 0.4535759687423706 -0.004451274871826172
-0.350803405046463 -0.061887145042419434 0.28644949197769165
0.11327342689037323 -0.31961870193481445 -0.1454503834247589
-0.23203840851783752 -0.44848448038101196 0.21594993770122528
0.17265592515468597 -0.5129173994064331 -0.1807001531124115
-0.20234715938568115 0.032216429710388184 -0.3790252208709717
0.18750154972076416 0.30478334426879883 0.0991625189781189
0.3824259042739868 0.44106680154800415 0.3382563889026642
-0.09746217727661133 0.5092085599899292 -0.11954693496227264
-0.3374062180519104 0.5432794094085693 -0.34844860434532166
-0.45737823843955994 -0.01703542470932007 0.11445082724094391
-0.5173642635345459 0.2801574170589447 -0.23144972324371338
0.029992997646331787 -0.14859642088413239 -0.4043999910354614
-0.27367863059043884 -0.36297333240509033 0.08647513389587402
0.15183581411838531 0.10718846321105957 0.33191269636154175
-0.21275722980499268 -0.23508089780807495 0.4546314775943756
0.1822965145111084 -0.4062155783176422 -0.06135939061641693
0.37982338666915894 -0.49178290367126465 -0.3193548321723938
0.4785868227481842 -0.5345665812492371 -0.44835254549980164
0.5279685258865356 -0.5559583902359009 -0.5128514170646667
0.5526593923568726 0.010695934295654297 0.03224942088127136
-0.012345433235168457 -0.2833271622657776 0.3047998547554016
0.2825024127960205 0.14701154828071594 0.44107505679130554
0.429926335811615 0.3621808886528015 0.5092126727104187
0.5036382675170898 -0.10758468508720398 -0.034068793058395386
0.5404942631721497 -0.3424674868583679 -0.3057095408439636
0.558922290802002 0.11744138598442078 0.13582035899162292
-0.00921398401260376 0.3473958373069763 -0.22076494991779327
-0.2932821214199066 0.4623730480670929 -0.3990575969219208
0.14203406870365143 0.51986163854599 0.08914633095264435
0.35969215631484985 -0.02874431014060974 -0.24410197138786316
0.46852120757102966 -0.3030472993850708 -0.4107261300086975
-0.054414525628089905 0.13715147972106934 -0.4940381944179535
-0.3158823847770691 0.3572508692741394 -0.5356942415237427
-0.4466163218021393 -0.11004969477653503 0.0208280086517334
0.0653669685125351 -0.34369999170303345 -0.27826112508773804
-0.2559916377067566 -0.46052512526512146 0.14954456686973572
0.16067931056022644 -0.5189377069473267 -0.21390284597873688
0.36901479959487915 0.029206275939941406 0.1817237138748169
0.4731825292110443 0.30327826738357544 0.3795369863510132
0.5252664089202881 -0.13703599572181702 -0.09890663623809814
-0.026041924953460693 -0.35719311237335205 0.23922181129455566
-0.3016960918903351 -0.46727168560028076 0.40828603506088257
0.1378270834684372 -0.5223109722137451 -0.08453211188316345
0.35758867859840393 0.027519643306732178 0.246409073472023
-0.10988079011440277 0.3024349510669708 -0.16547060012817383
-0.3436155319213867 -0.13745765388011932 0.20593982934951782
0.11686736345291138 0.21994629502296448 0.39164504408836365
0.3471088111400604 -0.1787019819021225 -0.09285260736942291
0.46222954988479614 0.1993241310119629 0.24224883317947388
0.5197899341583252 0.3883371949195862 0.4097995460033417
-0.02878016233444214 0.4828437268733978 -0.0837753564119339
0.27428504824638367 -0.04725326597690582 -0.3305628001689911
0.42581766843795776 0.2650485038757324 0.12339372932910919
-0.07576629519462585 0.42119938135147095 -0.22697827219963074
-0.32655829191207886 0.4992748200893402 -0.4021642804145813
0.1253959834575653 -0.03903771936893463 -0.4897572696208954
0.3513731360435486 0.269156277179718 0.04379649460315704
0.46436169743537903 -0.15409699082374573 -0.2667768895626068
-0.05649428069591522 0.21162663400173187 -0.42206358909606934
0.26042798161506653 -0.1828618049621582 -0.4997069239616394
-0.15846113860607147 -0.38010603189468384 0.038821667432785034
0.2094445526599884 -0.47872814536094666 -0.269264280796051
-0.18395285308361053 0.04931105673313141 -0.42330726981163025
0.19669869542121887 0.31333065032958984 0.07702149450778961
0.387024462223053 -0.13200980424880981 -0.2501643896102905
0.4821873605251312 -0.35468003153800964 -0.41375732421875
-0.047581449151039124 -0.46601516008377075 0.08179646730422974
-0.3124658465385437 0.05566754937171936 -0.24777689576148987
-0.4449080526828766 -0.26084136962890625 0.1647866815328598
-0.5111291408538818 0.1582544445991516 -0.20628178119659424
0.03311055898666382 -0.20954790711402893 -0.39181602001190186
0.30523040890693665 -0.393449068069458 -0.48458313941955566
0.44129031896591187 0.09195059537887573 0.046383559703826904
0.5093202590942383 -0.24269983172416687 -0.2654833495616913
-0.034014999866485596 -0.41002506017684937 0.1559334546327591
-0.30568262934684753 0.08366259932518005 -0.2107084095478058
0.13583381474018097 -0.2468438297510147 -0.39402931928634644
-0.22075822949409485 -0.4120970368385315 0.09166046977043152
-0.39905422925949097 -0.4947236478328705 0.3345053791999817
-0.4882022440433502 -0.5360369682312012 0.4559278190135956
0.044574007391929626 -0.5566936135292053 -0.060711219906806946
-0.2663881182670593 -0.5670219659805298 0.25831952691078186
-0.4218691885471344 -0.5721861124038696 0.4178348779678345
-0.49960970878601074 -0.5747681856155396 0.497592568397522
0.038870275020599365 0.001291036605834961 0.5374714136123657
-0.26923999190330505 -0.28802961111068726 0.5574108362197876
0.1540551334619522 0.1446603238582611 0.5673805475234985
0.36570268869400024 0.3610053062438965 0.572365403175354
-0.10582378506660461 0.469177782535553 -0.0024924278259277344
0.23576323688030243 0.5232640504837036 0.28742891550064087
-0.17079350352287292 0.5503071546554565 -0.1449606716632843
0.20327837765216827 -0.013521552085876465 -0.3611554503440857
-0.1870359480381012 0.2819143533706665 -0.4692528545856476
-0.38219308853149414 -0.14771795272827148 0.054048702120780945
0.09757858514785767 0.214816153049469 0.3156994879245758
0.33746442198753357 -0.18126705288887024 -0.13082538545131683
0.4574073553085327 -0.37930864095687866 -0.35408782958984375
-0.05997145175933838 0.0990208089351654 -0.4657190442085266
0.25868940353393555 0.33818554878234863 0.05581560730934143
0.4180198311805725 0.45776790380477905 0.31658291816711426
-0.07966521382331848 -0.05979117751121521 0.44696658849716187
0.2488425225019455 0.25877952575683594 0.5121583938598633
0.4130963981151581 -0.15928536653518677 -0.032595932483673096
0.49522334337234497 0.20903244614601135 0.2723771631717682
-0.04106345772743225 -0.18415890634059906 0.42486369609832764
0.2681434154510498 -0.38075459003448486 -0.07624328136444092
0.42274683713912964 -0.47905242443084717 -0.3267967700958252
0.5000485181808472 0.04914891719818115 0.12527674436569214
-0.03865087032318115 -0.26410067081451416 0.3513135015964508
-0.3080005645751953 0.15662479400634766 -0.11301837861537933
-0.4426754117012024 0.36698752641677856 -0.345184326171875
0.06733742356300354 -0.10518136620521545 -0.46126729249954224
0.3223438262939453 -0.34126579761505127 -0.5193088054656982
0.4498470425605774 -0.45930802822113037 -0.5483295321464539
0.5135986804962158 0.05902111530303955 0.014510363340377808
0.5454744696617126 0.3181856870651245 0.29593032598495483
-0.015937894582748413 0.447767972946167 -0.14070996642112732
0.28070616722106934 0.5125591158866882 0.21832014620304108
-0.14832204580307007 -0.03239557147026062 0.3978351950645447
0.2145141065120697 0.27247732877731323 0.4875927269458771
0.3959321975708008 -0.15243646502494812 -0.0448787659406662
0.4866412281990051 0.21245689690113068 0.26623573899269104
0.5319957733154297 0.3949035704135895 0.42179298400878906
0.5546730160713196 0.4861268997192383 0.49957162141799927
0.5660116672515869 0.5317385792732239 0.5384609699249268
-0.005669295787811279 0.5545444488525391 -0.019444644451141357
-0.2915097773075104 -0.011402904987335205 0.27895280718803406
0.14292024075984955 -0.29437658190727234 -0.1491987258195877
-0.21721500158309937 -0.4358634352684021 0.21407577395439148
-0.3972826302051544 0.07074341177940369 -0.181637242436409
-0.48731642961502075 0.3240468502044678 -0.37949374318122864
-0.5323333740234375 0.4506985545158386 -0.47842198610305786
0.022508442401885986 -0.06332585215568542 -0.527886152267456
0.29992935061454773 0.25701218843460083 0.02473205327987671
-0.13871045410633087 0.41718122363090515 -0.2763091027736664
0.2193199098110199 -0.08008451759815216 -0.4268296957015991
0.3983350992202759 -0.3287173807621002 -0.5020899772644043
-0.0895075798034668 0.12431643903255463 -0.5397201180458069
-0.33342891931533813 0.35083335638046265 -0.5585352182388306
0.12196066975593567 -0.11325845122337341 -0.56794273853302
-0.2276947945356369 0.23204590380191803 -0.5726464986801147
0.1748277246952057 -0.17265218496322632 -0.5749983787536621
0.3760889768600464 0.20234903693199158 0.0011759400367736816
-0.10063064098358154 -0.18750061094760895 0.2892630994319916
0.23835980892181396 0.19492483139038086 0.4333066940307617
0.4078550338745117 0.38613754510879517 0.5053284764289856
-0.08474761247634888 -0.09560635685920715 0.5413393974304199
0.2463013231754303 0.24087195098400116 0.5593448281288147
-0.1655244678258896 -0.16823914647102356 0.5683475732803345
-0.3714373707771301 -0.3727946877479553 0.572848916053772
-0.4743938148021698 0.10227778553962708 -0.00225067138671875
0.051478222012519836 -0.2375362366437912 -0.2898004651069641
0.31441423296928406 -0.40744325518608093 -0.4335753619670868
-0.1314680129289627 -0.4923967719078064 0.07188744843006134
-0.3544091284275055 -0.5348734855651855 0.3246188461780548
0.11147056519985199 -0.5561118721961975 -0.12636570632457733
0.34441041946411133 0.010619193315505981 0.22549226880073547
-0.11646991968154907 0.29398471117019653 -0.175928995013237
-0.3469100892543793 -0.14168277382850647 0.20071062445640564
0.1152200847864151 0.2178337424993515 0.38903045654296875
-0.23106509447097778 0.3975920081138611 -0.09415990114212036
-0.40420767664909363 -0.0898791253566742 0.24159517884254456
0.08657129108905792 0.24373556673526764 0.4094727039337158
-0.24538949131965637 0.41054290533065796 -0.08393877744674683
0.16598038375377655 0.4939465820789337 0.24670574069023132
-0.20568493008613586 0.5356484055519104 -0.16532225906848907
0.1858326643705368 0.5564993619918823 0.2060140073299408
-0.19575878977775574 -0.010425448417663574 0.39168214797973633
0.19079573452472687 -0.2938878536224365 -0.09283405542373657
0.3840729892253876 0.14173120260238647 0.24225810170173645
0.4807116389274597 -0.2178095281124115 -0.1675460785627365
-0.04831930994987488 0.179770365357399 -0.3724481761455536
0.2645154595375061 -0.19878995418548584 -0.4748992323875427
0.4209328591823578 0.18928015232086182 0.051225513219833374
-0.07820869982242584 0.38331520557403564 -0.26306235790252686
0.2495707869529724 -0.09701752662658691 -0.42020630836486816
0.41346052289009094 -0.3371838927268982 -0.4987782835960388
0.495405375957489 0.12008318305015564 0.03928598761558533
0.5363777875900269 -0.22863353788852692 -0.2690321207046509
0.5568640232086182 0.17435836791992188 0.1541590690612793
-0.010243117809295654 0.3758543133735657 -0.2115955948829651
-0.29379668831825256 -0.1007479727268219 0.1828773319721222
-0.4355734586715698 0.2383011430501938 -0.19723646342754364
-0.5064618587493896 0.4078257083892822 -0.38729336857795715
0.03544420003890991 0.49258798360824585 0.09502844512462616
-0.2709530293941498 0.5349690914154053 -0.24116089940071106
0.15319861471652985 -0.0211905837059021 -0.4092555642127991
-0.2120758295059204 -0.2992704212665558 0.0840473473072052
-0.39471304416656494 -0.43831032514572144 0.33069878816604614
0.09131860733032227 -0.5078302621841431 -0.12332573533058167
0.33433443307876587 0.0347599983215332 0.2270122617483139
-0.1215079128742218 -0.27129513025283813 0.4021812677383423
-0.34942907094955444 0.15302756428718567 -0.0875844955444336
-0.46338966488838196 -0.2121613472700119 0.24488288164138794
0.05698029696941376 -0.3947558104991913 -0.16623368859291077
-0.26018497347831726 -0.4860530495643616 0.20555828511714935
0.1585826426744461 -0.5317016839981079 -0.18589597940444946
0.3679664433002472 0.02282428741455078 0.19572713971138
-0.10469190776348114 0.3000872731208801 -0.19081155955791473
-0.3410210907459259 0.4387187659740448 -0.3840809166431427
0.11816458404064178 0.5080345273017883 0.09663467109203339
0.3477574288845062 0.5426924228668213 0.336992472410202
-0.11479641497135162 0.5600213408470154 -0.12017889320850372
-0.34607332944869995 0.56868577003479 -0.348764568567276
-0.4617117941379547 0.5730180144309998 -0.46305739879608154
0.05781923234462738 0.5751841068267822 0.057146430015563965
-0.25976550579071045 0.5762671828269958 -0.26010191440582275
0.1587923765182495 -0.0005415380001068115 -0.4187260866165161
0.3680713176727295 0.28840434551239014 0.07931208610534668
-0.10463947057723999 -0.14447295665740967 0.3283311724662781
-0.34099486470222473 -0.36091160774230957 0.4528407156467438
0.11817769706249237 -0.4691309332847595 -0.06225477159023285
-0.22958627343177795 -0.5232405662536621 0.2575477361679077
-0.4034682512283325 -0.5502954125404358 0.4174489974975586
-0.490409255027771 0.01352742314338684 -0.07995063066482544
0.04347050189971924 0.29543882608413696 0.24869981408119202
0.31041038036346436 -0.14095571637153625 -0.16432522237300873
0.4438803195953369 -0.35915297269821167 -0.3708377480506897
-0.06673496961593628 0.1090986430644989 -0.4740940034389496
-0.3220426142215729 0.3432244658470154 -0.5257221460342407
-0.44969642162323 0.4602873623371124 -0.5515362024307251
0.06382691860198975 -0.05853144824504852 -0.5644432306289673
0.3205885887145996 -0.3179408609867096 -0.5708967447280884
-0.12838083505630493 -0.44764554500579834 0.003226757049560547
-0.3528655469417572 -0.5124979019165039 0.290288507938385
-0.46510791778564453 0.03242617845535278 -0.14353087544441223
0.05612117052078247 0.30488821864128113 0.21690969169139862
0.31673571467399597 -0.13623102009296417 -0.18022027611732483
0.4470430016517639 -0.3567906320095062 -0.37878525257110596
-0.06515362858772278 0.11027981340885162 -0.4780677556991577
-0.32125192880630493 -0.23353523015975952 0.04964125156402588
-0.4493010938167572 -0.4054427444934845 0.3134957551956177
-0.5133256912231445 -0.4913964867591858 0.4454230070114136
-0.545337975025177 0.04297688603401184 -0.06596362590789795
0.016006141901016235 -0.26718670129776 -0.3216569423675537
-0.2806720733642578 0.15508177876472473 -0.4495036005973816
0.14833909273147583 -0.21113424003124237 -0.5134268999099731
0.36284467577934265 -0.3942422568798065 -0.5453885793685913
-0.10725279152393341 0.09155400097370148 -0.5613694190979004
-0.34230151772499084 -0.2428981363773346 0.007990419864654541
-0.45982587337493896 0.16722606122493744 -0.28467991948127747
-0.5185880661010742 -0.20506209135055542 0.146335169672966
-0.5479691624641418 0.18614408373832703 -0.21550753712654114
0.014690548181533813 -0.19560308754444122 -0.3964288830757141
-0.281329870223999 -0.38647666573524475 0.09046068787574768
-0.42934006452560425 0.09543679654598236 -0.2434447854757309
0.07400509715080261 0.3363935351371765 0.1669527292251587
-0.25167256593704224 0.456871896982193 -0.2051987648010254
-0.41451141238212585 -0.06023918092250824 0.18607574701309204
-0.49593085050582886 -0.31879472732543945 0.38171300292015076
-0.5366405248641968 0.129277765750885 -0.09781862795352936
0.020354866981506348 0.35331401228904724 0.23976582288742065
-0.27849769592285156 0.46533215045928955 -0.1687922179698944
-0.4279239773750305 0.5213412046432495 -0.37307125329971313
